ncols        746
nrows        32
xllcorner    2283380
yllcorner    4827460
cellsize     20.000000000000
NODATA_value      0
329 329 330 330 330 330 330 329 331 331 331 331 331 332 333 333 333 329 329 329 328 329 329 331 328 328 328 328 328 327 327 327 327 327 327 326 327 326 326 326 326 326 326 326 326 325 325 325 325 325 325 325 324 324 324 324 323 323 323 322 322 322 322 321 321 321 321 321 321 321 321 321 320 320 320 320 320 320 320 320 320 320 320 320 320 320 320 319 319 319 319 319 319 318 318 318 318 318 317 317 317 317 317 317 317 316 316 316 316 316 316 316 316 315 315 315 315 315 315 314 314 314 314 314 314 313 313 313 313 312 313 313 313 313 313 313 312 312 312 311 311 311 311 311 311 310 310 310 310 310 310 311 310 310 310 310 310 310 309 309 309 309 309 309 309 309 309 309 309 310 309 310 310 310 310 310 310 310 310 310 310 310 310 310 310 310 310 310 310 310 311 311 311 312 312 312 312 312 312 312 313 313 313 313 313 313 313 313 313 314 314 314 315 315 315 315 315 315 315 315 315 316 315 315 315 315 315 316 316 316 316 316 316 316 317 317 317 318 318 318 318 318 318 318 318 318 319 318 319 319 319 319 319 319 319 319 319 319 319 319 319 320 320 320 320 320 320 320 321 321 321 321 321 322 322 322 322 322 323 323 323 324 324 324 325 325 326 327 327 327 328 329 329 330 330 330 330 330 331 332 331 333 334 336 337 338 341 339 341 339 341 339 341 343 345 344 344 345 345 347 347 348 349 350 350 350 349 350 350 350 348 348 347 346 347 347 348 349 350 351 352 353 353 353 353 353 353 353 353 353 352 350 350 349 348 348 348 348 347 347 347 347 347 345 345 344 345 346 346 347 348 349 350 351 352 354 356 357 359 360 362 363 365 367 368 370 371 372 375 377 380 381 386 386 388 392 395 400 402 404 406 412 415 418 425 425 423 425 425 423 425 425 426 429 430 431 433 436 440 444 450 450 450 455 458 460 462 465 466 466 466 464 459 456 450 462 475 486 496 504 512 517 518 515 510 506 500 493 490 484 481 475 466 462 462 466 472 478 484 492 500 505 508 513 518 525 533 541 550 558 564 575 582 587 591 600 600 588 586 575 575 562 550 542 540 535 525 500 487 475 470 472 472 471 475 487 500 505 509 514 518 525 529 532 536 540 545 550 555 560 564 569 575 582 587 592 600 608 614 625 627 626 628 633 637 642 650 657 662 667 675 677 679 681 684 687 688 693 696 700 708 716 725 736 747 754 760 767 775 780 785 789 793 795 800 806 811 816 821 825 830 832 830 825 812 800 791 783 775 766 758 750 738 733 725 722 715 718 727 735 737 739 750 750 752 758 758 758 758 758 759 757 750 725 712 700 689 683 675 650 637 625 612 600 597 600 608 616 625 631 635 637 650 656 661 666 669 675 682 689 693 700 708 716 725 730 731 734 740 745 750 757 764 768 771 775 782 787 792 800 804 808 812 816 817 820 821 825 833 841 850 850 855 858 850 837 825 812 800 800 775 766 760 750 750 747 750 762 762 762 756 750 750 737 725 717 710 708 708 710 714 725 730 732 731 729 727 725 712 700 687 675 662 650 648 643 650 650 650 637 650 662 662 662 662 662 664 666 667 668 664 657 650 637 625 612 600 602 597 596 600 612 625 637 650 650 662 675 675 677 675 681 683 689 700 708 714 725 731 737 743 750 762 775 776 778
329 329 330 329 329 330 330 329 331 330 331 331 331 332 331 332 329 329 329 329 328 330 331 331 328 328 328 328 328 327 327 327 327 327 327 326 326 327 326 326 326 326 326 326 326 325 325 325 325 325 324 325 324 324 324 324 323 323 323 322 322 322 322 322 321 321 321 321 321 321 321 321 320 320 320 320 320 320 320 320 320 320 320 320 320 320 320 319 319 319 319 318 318 318 318 318 318 318 317 317 317 317 317 317 316 316 316 316 316 316 316 315 315 315 315 315 315 315 315 314 314 314 314 314 314 314 313 313 313 313 313 313 312 312 312 312 313 312 312 311 311 311 311 311 311 310 310 310 310 310 310 310 310 310 310 310 310 310 309 309 309 309 309 309 309 309 309 309 309 309 310 310 310 310 310 310 310 310 310 310 310 310 310 310 310 310 310 310 310 310 310 311 311 312 311 311 311 312 313 312 313 313 313 313 313 313 313 313 313 314 314 314 315 315 315 315 315 315 315 315 315 315 315 315 315 315 316 316 316 316 316 316 316 316 317 317 317 317 318 318 317 317 318 317 318 318 318 318 318 318 318 319 318 318 318 319 319 319 319 319 319 319 320 320 320 320 320 320 320 320 321 321 321 321 321 322 322 322 322 323 323 323 324 324 324 325 325 326 326 327 328 328 329 329 328 330 330 330 330 331 331 331 332 335 336 336 341 342 340 341 340 340 341 342 343 344 344 343 343 345 346 347 347 348 347 346 348 350 348 348 347 346 346 345 346 347 347 348 348 349 351 351 351 351 351 351 351 351 351 352 351 350 348 348 348 348 348 347 347 347 347 347 346 346 345 345 346 346 347 347 348 349 350 351 352 354 356 357 359 360 362 363 365 366 366 367 370 371 372 375 378 380 386 387 389 393 396 400 400 403 405 408 416 418 420 421 425 422 422 422 425 427 428 429 431 432 435 438 440 443 446 446 450 453 455 455 456 457 458 458 458 458 456 450 450 462 475 487 496 503 509 512 512 510 506 501 500 491 486 481 475 471 463 458 458 464 475 477 483 490 493 500 506 512 517 523 532 539 545 550 560 564 575 582 585 587 587 578 575 571 568 561 550 539 533 527 525 500 487 475 472 472 471 475 482 500 505 508 513 517 523 527 530 535 538 542 545 550 555 560 565 570 575 584 591 600 607 612 617 625 628 631 632 634 639 643 648 650 658 666 675 675 678 679 682 683 686 692 696 700 710 716 725 734 741 750 758 766 775 779 783 787 791 795 800 806 812 818 825 829 832 838 831 825 812 800 791 783 775 766 758 750 733 725 717 713 709 710 717 725 727 735 739 742 750 750 750 750 750 750 752 750 737 725 712 700 691 683 675 650 633 625 612 600 596 600 608 616 625 631 637 638 650 656 660 667 675 679 683 688 695 700 708 716 725 731 736 740 743 750 755 758 762 768 771 775 775 783 791 800 805 810 814 818 820 821 825 825 835 841 850 851 853 853 850 850 837 825 812 800 787 775 762 750 742 737 737 750 750 757 750 747 750 737 725 716 710 700 700 700 712 725 723 730 732 729 728 728 725 700 687 675 664 660 650 640 638 637 625 625 637 650 650 650 650 650 658 658 660 662 659 656 650 625 625 612 600 598 596 596 600 610 616 625 637 650 650 675 675 670 671 675 675 685 689 700 712 725 731 737 743 750 762 775 777 777
329 329 329 329 329 329 329 329 329 330 330 330 330 330 331 330 329 329 329 328 329 330 330 328 328 328 328 328 328 328 327 327 327 327 326 326 326 326 326 326 326 326 326 326 326 325 325 325 325 324 324 325 324 324 323 324 323 323 323 322 322 322 322 322 321 321 321 321 321 321 321 321 321 320 320 320 320 320 320 320 320 320 320 320 320 320 319 319 319 319 319 319 319 318 318 318 318 318 317 317 317 317 317 316 317 316 316 316 316 316 316 315 315 315 315 315 315 315 315 314 314 314 314 314 314 313 313 313 313 313 312 312 312 312 312 312 312 312 312 311 311 311 311 311 311 311 310 310 310 310 310 310 310 310 310 310 310 310 310 310 309 309 309 309 309 309 309 309 310 310 310 310 310 310 310 310 310 310 310 310 310 310 310 310 310 310 310 310 310 310 310 311 311 312 312 311 311 312 312 312 313 313 313 313 313 313 313 313 313 313 314 314 314 315 315 315 315 315 315 315 315 315 315 315 315 315 315 316 316 316 316 316 317 317 317 317 317 317 317 318 318 317 317 317 318 317 317 318 317 318 318 318 318 318 318 318 318 319 318 318 319 319 319 319 319 320 320 320 320 320 320 320 321 321 321 321 322 322 322 322 323 323 323 324 324 325 325 325 326 326 327 328 329 329 328 329 329 330 330 331 330 330 332 334 336 336 338 337 340 338 340 339 341 340 341 343 344 341 343 343 343 345 346 345 345 345 346 347 347 346 346 345 345 346 347 346 346 347 347 347 349 350 350 350 350 350 350 350 350 350 350 350 348 348 346 347 347 347 347 346 345 346 346 346 346 346 346 346 347 348 348 349 350 350 351 354 356 357 358 357 361 363 364 360 361 366 369 370 372 375 376 379 381 386 389 393 396 401 400 404 408 411 414 416 416 418 420 420 420 422 425 426 428 429 430 432 436 438 439 441 442 444 448 450 452 450 450 450 452 452 450 452 450 449 454 463 475 487 500 504 507 506 506 506 501 500 492 488 482 478 475 462 453 449 450 460 466 475 481 487 493 500 505 510 516 522 528 535 542 547 550 562 575 575 575 575 575 575 562 561 561 553 543 536 525 525 512 500 487 475 472 472 475 482 500 504 508 511 515 519 525 529 533 537 541 545 550 552 556 561 566 570 575 586 597 604 611 617 625 625 629 631 633 636 641 648 650 655 659 665 669 674 675 678 681 683 689 692 696 700 712 725 731 735 742 750 758 766 775 779 781 785 790 795 800 806 812 818 825 828 832 833 830 825 812 800 791 783 775 766 758 750 728 725 716 708 700 700 710 714 719 725 733 737 741 741 742 742 742 740 742 737 735 725 712 700 689 683 675 650 637 625 612 600 596 600 608 616 625 630 636 641 645 650 658 666 675 680 685 689 694 700 708 716 725 731 737 743 750 754 757 762 766 770 775 780 781 785 792 800 806 811 816 820 825 825 825 835 839 850 854 852 851 850 850 839 835 825 812 800 787 775 762 750 739 735 725 737 737 750 737 750 750 739 733 725 712 700 696 698 700 712 725 728 729 729 728 728 725 700 689 685 675 662 650 639 635 625 629 620 625 637 639 641 639 637 650 650 656 656 656 650 637 625 614 610 600 596 595 598 600 608 616 625 635 641 650 662 666 666 668 670 671 675 687 700 712 725 731 737 743 750 762 775 777 777
328 329 329 329 329 329 329 327 329 329 330 330 328 328 329 329 329 328 328 329 329 329 330 328 328 328 327 328 328 328 327 327 327 327 326 326 326 326 326 326 326 326 326 326 326 325 325 325 324 325 325 324 324 324 323 323 323 323 323 323 322 322 322 322 321 321 321 321 321 321 321 320 320 320 320 320 320 320 320 320 320 320 320 320 320 320 319 319 319 319 319 319 318 318 318 318 318 318 318 317 318 318 317 317 316 317 317 317 316 316 316 315 316 315 315 315 315 315 314 314 314 314 314 314 313 314 313 313 313 312 312 312 312 312 313 312 312 312 312 312 311 311 311 311 311 310 310 310 310 311 310 310 310 310 310 310 310 310 310 310 310 310 309 309 309 309 309 310 310 310 310 310 310 310 310 310 310 310 310 311 310 310 310 310 310 311 310 310 311 311 311 311 311 311 311 312 312 312 312 312 312 313 313 313 313 313 313 313 313 313 313 313 314 314 315 315 315 315 315 315 315 315 315 315 315 315 315 315 316 316 316 316 316 317 317 316 316 317 318 317 317 317 317 317 317 317 317 318 317 317 317 317 317 318 318 318 318 318 318 318 318 318 319 319 319 319 319 320 320 320 320 320 320 320 321 321 321 321 322 322 322 323 323 323 324 324 325 325 325 326 327 327 328 327 327 328 328 328 329 330 330 332 333 333 333 335 336 338 338 340 341 338 340 341 341 341 343 343 342 343 343 343 343 345 343 344 343 345 345 346 345 345 345 344 345 344 346 346 345 346 347 347 348 348 349 349 349 349 348 349 350 348 349 347 347 346 346 346 346 345 347 346 346 346 346 346 347 346 347 348 349 349 350 350 352 354 355 357 356 359 360 362 363 362 361 365 368 369 370 373 374 376 380 384 389 392 397 399 400 401 404 408 410 412 412 415 416 418 420 424 424 426 427 428 430 430 433 435 436 438 440 442 444 445 447 447 445 445 450 447 446 450 447 447 450 462 475 487 500 502 501 501 500 500 494 492 489 483 477 475 466 461 450 449 450 458 465 475 481 485 491 497 503 507 513 516 525 532 537 542 550 560 566 565 563 562 562 556 550 550 550 541 536 528 518 512 503 500 487 475 470 471 475 491 500 508 513 516 518 523 525 529 534 539 543 546 551 555 559 563 568 573 580 588 600 608 615 625 629 629 630 633 636 639 642 650 652 656 662 666 670 675 675 678 681 687 686 690 696 700 712 725 731 736 742 750 757 764 768 776 780 784 789 794 800 806 812 818 825 825 830 831 829 825 812 800 791 783 775 766 758 750 737 727 718 710 702 700 700 708 714 717 725 732 733 733 735 736 734 733 734 727 725 715 700 692 685 675 662 650 637 625 612 600 597 600 610 616 625 630 634 640 645 650 658 666 675 681 684 690 693 700 708 716 725 731 737 743 750 754 760 764 769 775 775 781 786 790 793 800 807 814 818 825 831 832 835 839 850 853 853 852 851 850 841 835 825 812 800 789 785 775 764 758 750 725 722 725 725 725 725 725 737 737 731 725 714 708 700 697 700 712 725 725 729 729 730 728 725 712 700 689 685 675 650 650 625 625 625 621 619 625 633 633 633 625 637 650 650 650 654 650 637 625 612 600 597 592 593 600 607 612 617 625 633 641 650 658 662 664 666 667 671 675 687 700 712 725 731 737 743 750 762 775 778 778
328 328 329 329 329 329 329 327 327 326 326 328 328 329 329 329 328 328 329 329 329 329 328 328 328 327 327 327 327 327 327 327 327 326 326 326 326 326 326 326 326 326 326 326 325 325 325 324 326 325 325 324 324 323 323 323 323 323 323 323 322 322 322 322 322 321 321 321 321 321 320 320 320 320 320 320 320 320 320 320 320 320 320 320 320 319 319 319 319 319 319 319 318 318 318 318 318 317 317 317 317 317 317 316 316 316 316 316 316 316 316 315 315 315 315 315 314 314 314 314 314 314 314 314 314 314 314 313 313 312 312 312 312 312 312 312 312 312 312 312 312 311 311 311 311 310 310 311 310 310 310 310 310 310 310 310 310 310 310 310 310 310 310 309 309 310 310 310 310 310 310 310 310 310 310 310 310 310 310 311 311 310 310 311 310 311 310 310 311 311 311 311 311 311 311 312 312 312 312 312 313 312 313 313 313 313 313 313 313 313 313 313 313 314 314 315 315 314 314 314 314 315 315 315 315 315 315 315 315 316 317 316 316 316 316 316 316 317 318 317 317 316 317 317 317 317 317 317 317 317 317 317 317 317 317 318 318 318 318 318 318 318 318 318 318 318 319 319 319 319 320 320 320 320 320 321 321 321 321 322 322 322 323 323 323 324 324 325 325 325 326 326 327 327 326 327 327 327 328 329 329 331 332 332 334 332 335 336 338 339 339 338 340 340 341 341 341 341 342 342 342 340 340 341 341 342 341 343 343 343 343 344 344 344 344 343 345 344 345 345 346 346 346 347 347 347 347 346 347 348 348 348 347 347 347 347 347 347 347 347 346 346 346 346 346 345 346 346 347 348 349 350 349 350 352 352 354 356 357 357 360 358 363 358 359 366 367 368 370 370 372 375 379 384 388 390 394 398 400 403 403 405 407 408 409 412 415 418 423 423 425 426 427 427 428 428 431 432 433 434 436 438 439 440 442 443 442 443 445 443 443 445 444 448 450 462 475 486 500 498 501 493 488 487 486 485 485 481 475 463 460 457 453 448 450 453 462 471 475 482 486 491 497 503 510 516 522 528 534 542 550 557 558 558 552 550 550 550 529 534 529 529 525 518 511 500 492 491 479 469 467 473 482 500 509 512 521 522 523 525 526 530 535 540 545 550 554 557 561 565 570 575 583 590 600 609 616 625 629 633 635 637 637 642 650 654 655 659 663 669 675 675 678 679 680 683 686 693 698 705 712 722 729 734 741 750 756 762 767 775 780 783 788 793 800 806 810 815 818 825 827 830 828 825 815 800 791 783 775 766 758 750 738 727 718 712 702 700 700 706 707 712 716 725 725 725 731 731 729 725 725 715 703 700 690 685 677 675 662 650 637 625 612 600 597 600 612 625 628 631 635 640 645 650 657 664 668 675 683 691 700 700 708 716 725 731 735 742 750 755 758 762 767 770 775 782 787 793 800 800 810 816 825 825 831 837 841 850 850 853 854 854 854 850 841 835 825 812 800 787 775 766 760 750 750 725 717 714 712 712 712 725 725 732 731 725 714 708 700 696 695 700 712 725 728 729 728 727 725 712 700 700 687 675 662 662 650 637 635 625 622 620 625 625 625 625 625 637 637 637 650 641 635 625 612 600 592 587 591 600 608 616 625 631 635 642 650 656 660 662 664 666 671 675 687 700 712 725 731 737 743 750 760 766 775 778
328 328 329 329 329 329 329 327 327 326 326 326 328 328 327 327 327 328 328 328 327 327 327 327 327 326 326 326 326 326 326 326 326 326 326 326 326 326 325 325 325 326 325 325 325 325 325 324 325 325 324 324 324 323 323 323 323 323 323 323 322 322 322 322 322 321 321 321 321 321 320 320 320 320 320 320 320 320 320 320 320 320 320 320 320 319 319 319 319 319 319 318 318 318 318 318 318 318 317 317 317 317 316 316 316 316 316 316 316 316 316 315 315 315 315 315 314 314 314 314 314 314 314 314 314 314 314 313 313 313 313 313 313 312 312 312 312 312 312 312 312 311 311 311 311 311 310 310 311 310 310 310 310 310 310 310 310 310 310 310 310 310 310 310 310 310 310 310 310 310 310 310 310 310 310 310 310 310 310 310 311 311 310 311 311 311 310 310 310 311 311 311 311 312 312 311 312 312 311 311 312 312 313 313 314 314 313 313 313 313 313 313 314 313 314 314 314 315 315 314 314 314 315 314 314 315 315 315 315 315 316 316 316 316 316 316 316 316 316 316 317 316 316 316 317 317 317 317 316 317 316 317 317 317 317 317 317 317 317 317 317 318 318 318 318 318 318 319 319 319 319 319 320 320 320 320 320 321 321 321 322 322 323 323 323 323 324 324 325 325 325 326 326 326 326 326 327 328 328 328 329 331 331 332 331 331 332 336 336 337 337 336 339 340 340 340 342 341 341 341 341 339 339 339 339 340 340 341 341 342 343 342 343 343 344 344 344 343 344 344 345 345 345 346 346 346 345 346 347 347 347 347 346 347 346 346 345 346 346 346 345 346 346 346 346 345 346 346 346 348 348 348 350 350 351 352 353 354 356 357 357 359 359 360 361 362 368 368 370 369 371 375 378 381 387 387 391 394 395 400 401 403 403 404 406 409 413 418 422 424 424 426 426 426 426 427 428 428 429 432 433 434 435 436 438 439 438 439 439 439 439 441 444 448 457 470 478 485 491 500 500 488 478 475 475 478 481 479 475 455 450 450 448 447 447 450 459 465 472 475 482 489 497 503 507 513 518 525 532 538 542 550 550 550 544 541 538 529 526 518 516 516 512 511 503 500 488 479 475 462 463 472 482 500 511 522 519 525 526 528 530 532 536 540 545 550 552 558 562 566 570 575 583 591 600 610 622 627 630 634 638 640 644 648 650 654 658 661 665 670 675 677 678 679 680 682 686 688 693 700 709 715 725 733 737 750 755 758 762 767 775 781 786 792 798 803 807 813 818 825 827 827 827 825 815 800 791 783 775 766 758 750 739 733 725 714 707 700 695 700 702 707 710 712 714 716 725 725 725 716 717 710 700 688 678 675 665 662 660 650 637 625 600 600 596 600 610 616 625 630 634 639 644 650 656 662 668 675 683 691 700 705 709 715 720 725 733 741 750 750 757 764 768 775 775 785 791 793 800 810 814 825 825 830 833 838 843 850 853 853 853 854 853 849 850 837 825 812 800 787 775 766 760 750 737 725 725 713 700 700 700 712 714 725 725 725 712 700 700 693 693 700 710 716 725 728 725 725 718 713 708 700 687 675 675 675 662 650 637 625 625 621 620 621 620 622 625 625 625 625 637 635 632 625 612 600 589 583 587 600 608 614 625 631 635 642 650 655 658 661 662 664 670 675 687 700 712 725 731 737 743 750 758 766 775 778
328 328 329 329 329 329 329 327 327 326 326 326 326 328 327 327 327 327 327 327 327 325 326 326 326 326 326 326 326 326 326 326 327 326 326 326 326 326 325 325 326 326 326 325 325 325 325 325 324 324 324 324 324 323 323 323 323 323 322 322 322 322 322 322 321 321 321 321 321 321 320 320 320 320 320 320 320 320 320 320 320 320 320 320 320 319 319 319 319 319 319 318 318 318 318 318 318 318 318 317 317 317 317 316 316 316 316 316 315 316 315 315 316 315 315 315 314 314 314 314 314 314 314 314 314 314 314 314 313 313 313 313 313 312 312 312 312 312 312 312 312 311 311 311 311 311 310 311 310 310 311 310 310 310 310 310 310 310 310 310 310 310 310 310 310 310 310 310 310 310 310 310 310 310 310 311 310 310 311 311 311 311 311 310 311 311 311 311 310 311 311 311 312 311 311 311 311 311 311 311 311 312 313 313 312 314 313 313 313 313 313 313 313 313 313 314 314 314 314 315 315 315 315 314 314 315 315 315 315 315 315 315 315 316 316 316 316 316 315 316 317 316 316 316 317 316 316 316 316 316 316 316 316 316 316 316 317 317 317 317 317 317 317 317 318 318 318 318 318 318 318 319 320 320 320 320 320 321 321 321 321 322 322 323 323 323 323 324 324 325 325 326 325 326 327 327 327 327 328 328 328 330 330 330 330 330 331 333 333 336 336 335 337 339 339 339 339 341 340 341 341 339 338 338 338 338 338 339 341 340 342 341 342 343 342 344 344 343 344 344 344 344 344 345 345 344 344 345 345 346 346 346 346 346 346 346 345 345 346 344 346 346 346 346 344 346 346 347 347 347 348 348 349 350 351 351 352 354 355 355 357 358 359 361 363 365 366 369 369 370 373 375 376 380 382 384 388 392 393 395 400 400 400 400 404 408 412 417 422 425 425 425 425 425 426 425 425 425 426 429 429 429 430 432 434 435 434 435 435 434 436 439 444 450 461 470 476 480 484 487 488 478 475 469 466 471 475 475 462 450 447 446 445 446 448 450 456 463 468 475 482 488 496 500 505 511 517 523 528 534 540 542 540 538 536 533 533 525 512 509 504 504 500 500 491 487 485 475 462 450 460 471 482 500 512 525 521 526 527 529 532 533 537 540 544 548 552 556 561 566 573 579 585 592 600 610 622 627 631 635 639 643 648 651 653 655 658 662 666 670 675 677 677 678 680 682 683 688 694 700 704 712 718 725 725 737 750 754 758 764 775 779 783 789 793 800 806 813 818 825 825 827 827 825 815 800 791 783 775 766 758 750 741 733 725 713 702 696 690 691 700 700 700 700 708 710 712 712 714 711 709 702 700 687 677 665 653 652 650 650 625 612 600 596 596 600 608 616 625 630 633 638 643 650 656 662 668 675 683 691 700 706 711 716 720 725 733 741 750 750 760 766 775 782 785 789 800 800 808 814 825 828 828 831 835 839 844 850 853 854 853 853 850 850 839 835 825 814 808 800 775 775 762 750 739 735 725 714 711 700 702 700 710 712 714 712 710 700 692 689 691 700 707 710 714 725 718 719 715 712 708 700 689 687 687 675 675 662 650 637 625 625 625 625 621 621 619 618 618 616 625 625 625 614 610 600 587 575 575 600 600 610 616 625 633 641 650 654 657 658 661 664 668 675 700 708 714 725 731 735 741 750 758 764 775 777
328 329 329 329 329 329 327 327 326 326 326 326 326 327 326 326 326 326 326 326 325 325 325 325 325 325 325 325 325 325 325 325 325 325 325 325 326 326 325 325 325 325 325 325 325 325 324 324 324 324 324 324 324 323 323 323 323 323 323 322 322 322 322 322 322 322 321 321 321 321 320 320 320 320 320 320 320 320 320 320 320 320 320 320 320 319 319 319 319 319 319 318 318 318 318 318 318 318 317 317 317 317 317 317 316 316 316 315 315 315 315 315 315 315 315 315 314 314 314 314 314 314 314 314 314 314 314 313 313 313 313 313 312 313 312 312 312 312 312 312 312 312 312 311 311 311 310 311 310 310 310 310 310 310 310 310 310 310 310 310 310 310 310 310 310 310 310 310 310 310 310 310 310 310 311 310 311 311 311 311 311 311 310 311 311 311 311 311 310 310 311 311 311 312 311 311 311 311 311 311 311 311 312 312 312 312 312 312 312 313 313 313 313 313 313 314 313 314 314 314 314 314 314 315 315 315 315 315 315 315 315 315 315 315 315 316 316 315 315 316 316 316 317 316 316 316 316 316 316 316 316 316 317 317 316 316 316 316 316 316 316 317 317 317 317 318 318 318 318 318 318 319 319 319 320 320 320 320 321 321 321 321 322 322 323 323 323 324 324 324 324 325 325 325 326 327 326 326 327 327 328 329 329 330 330 330 330 331 333 334 335 335 336 339 337 338 337 338 340 340 340 339 338 337 337 337 336 337 339 339 340 341 341 342 343 343 344 343 343 343 345 344 344 345 344 344 344 345 344 345 344 345 346 346 345 345 345 345 345 344 345 345 346 346 344 346 346 346 347 347 347 347 348 349 350 351 352 353 354 354 357 358 357 361 359 362 364 366 369 371 372 375 378 379 379 381 386 388 390 393 394 395 395 400 405 408 413 418 425 425 426 425 426 423 425 422 421 421 425 425 425 425 427 429 430 430 430 430 430 430 433 439 443 450 464 475 477 480 482 485 484 478 470 464 461 462 462 462 450 447 445 443 445 445 448 452 457 462 468 473 479 486 492 500 505 510 516 523 528 532 536 536 533 527 525 525 525 516 500 500 491 491 479 479 475 475 475 466 454 450 457 470 482 500 511 517 525 525 525 527 527 531 535 538 541 544 548 555 559 565 572 581 588 597 606 612 622 627 631 635 639 643 648 651 655 657 660 663 667 671 675 675 677 681 681 681 684 686 694 695 700 707 710 714 722 733 746 747 750 760 766 775 781 787 793 800 807 815 823 825 826 827 828 825 815 800 789 783 775 764 758 750 737 733 725 713 702 693 688 687 687 689 691 692 700 700 700 700 708 706 700 700 687 677 665 653 650 637 627 625 622 600 600 597 595 600 607 614 618 625 631 637 643 650 656 662 668 675 683 691 700 706 712 718 725 732 737 742 750 758 764 775 782 787 791 800 805 806 810 817 825 828 830 833 837 841 845 850 852 853 854 853 850 839 835 825 825 814 808 800 787 775 764 758 750 739 735 725 714 707 700 694 700 700 707 700 700 692 687 682 685 689 700 700 710 715 715 715 716 713 712 706 700 700 700 687 683 675 650 639 637 637 635 633 625 625 622 617 612 610 612 612 612 610 600 587 575 570 575 587 600 610 616 625 633 641 650 654 655 656 658 662 675 687 700 706 714 718 725 733 737 750 750 762 775 779
328 329 329 329 328 327 327 326 326 326 326 326 326 326 327 326 326 326 325 325 325 325 325 325 325 325 325 325 325 325 325 325 325 325 325 325 325 325 325 325 325 325 325 325 324 324 324 324 324 324 324 324 323 323 323 323 322 322 322 322 322 322 322 322 321 321 321 321 321 321 320 320 320 320 320 320 320 320 320 320 320 320 320 320 320 319 319 319 319 319 319 318 318 318 318 318 318 318 317 317 317 317 317 316 316 316 316 316 315 315 316 315 315 315 315 315 314 314 314 314 314 314 314 314 314 314 314 314 313 313 313 313 312 313 313 312 312 312 312 312 312 312 311 312 311 311 311 311 311 311 310 310 310 310 310 310 310 310 310 310 310 310 310 310 310 310 310 310 310 310 310 310 310 310 310 311 311 311 311 311 311 311 311 311 310 311 311 311 311 311 310 311 311 312 312 311 311 311 311 311 311 311 311 312 311 312 312 312 312 312 312 312 312 313 312 313 313 314 314 314 314 314 314 314 314 314 315 315 315 315 315 316 316 315 316 316 316 315 315 316 316 316 316 316 316 316 316 316 316 316 316 316 316 316 316 316 316 316 316 316 316 316 316 317 317 317 317 318 318 318 318 318 319 319 319 320 320 320 320 321 321 321 322 322 322 323 323 323 324 324 324 324 325 325 326 326 327 327 327 327 328 328 329 329 330 330 330 331 331 333 335 334 339 337 336 337 333 336 337 338 338 337 337 336 336 336 335 335 336 337 339 341 341 340 340 341 343 342 341 342 342 343 343 343 344 344 343 342 343 342 343 343 344 344 344 344 344 344 344 344 344 345 345 346 346 346 346 346 346 346 346 347 348 348 350 351 352 352 352 355 356 356 358 359 360 361 362 365 368 369 371 372 375 375 375 379 382 385 386 388 389 391 393 396 400 406 412 418 425 425 426 426 425 425 420 418 416 418 420 420 421 421 425 425 426 426 426 426 425 427 433 441 450 462 475 478 477 478 478 481 481 475 466 458 453 450 450 450 444 444 442 441 443 445 448 453 458 462 467 473 478 484 490 496 504 507 514 518 525 527 531 531 527 518 513 512 512 511 500 491 479 475 466 466 462 462 450 450 446 450 457 475 485 489 500 511 516 525 522 525 525 529 532 536 539 543 546 550 557 564 572 582 595 600 611 621 625 627 631 635 639 643 648 651 655 658 661 664 667 670 674 675 677 680 681 684 688 691 693 695 696 700 700 710 721 725 735 739 746 758 764 775 781 787 792 800 807 815 823 826 826 826 827 825 807 793 787 777 768 762 752 740 728 725 720 713 706 700 688 675 675 683 683 687 691 691 692 697 700 700 700 678 677 667 664 653 640 626 618 600 600 600 600 598 600 605 608 613 620 625 631 635 642 650 656 662 668 675 683 691 700 706 712 718 725 733 739 750 757 762 767 775 783 791 800 799 805 808 812 816 820 825 828 831 835 839 844 850 853 854 853 850 839 835 825 814 812 810 800 800 787 775 766 758 750 750 737 725 712 700 693 691 691 700 700 692 693 689 682 675 675 685 689 692 700 708 710 712 715 720 713 709 707 708 700 691 685 675 662 650 650 650 641 639 635 633 625 625 612 600 600 600 600 600 600 587 575 570 575 587 600 612 625 630 634 640 645 650 650 650 650 650 675 687 700 706 711 714 717 725 725 737 739 750 762 775
328 329 329 327 327 327 326 326 326 326 326 326 326 326 326 326 326 326 325 325 325 325 325 325 325 325 325 325 325 325 325 325 325 325 325 325 325 325 325 325 325 325 324 324 324 324 324 324 324 323 324 323 323 323 323 323 323 322 322 322 321 321 322 321 321 321 321 321 321 320 320 320 320 320 320 320 320 320 320 320 320 320 320 320 320 319 319 319 319 319 319 318 318 318 318 318 318 317 317 317 318 317 316 317 316 316 316 316 316 316 316 315 315 315 315 315 314 314 314 314 314 314 314 314 314 314 314 314 313 313 313 312 312 313 313 313 313 312 312 312 312 312 311 311 311 311 311 311 311 310 310 310 310 310 310 310 310 310 310 311 310 310 310 310 310 310 310 310 310 310 310 310 310 310 310 311 311 311 311 311 311 311 311 311 311 311 311 311 310 310 310 311 311 311 312 311 311 311 311 311 311 311 311 310 311 312 312 311 312 312 312 313 312 312 312 313 313 313 314 314 314 314 313 314 314 314 314 314 315 315 315 315 316 315 316 315 315 316 315 316 316 316 316 316 316 316 316 316 315 315 315 316 316 316 315 315 315 315 315 316 316 316 316 316 316 317 317 317 318 318 318 318 318 318 319 319 319 320 320 320 321 321 321 322 322 322 323 323 323 323 324 324 324 325 325 326 326 327 327 327 327 328 328 329 330 329 330 330 331 332 333 334 336 336 335 336 337 336 334 336 337 336 336 336 335 335 335 334 336 336 338 340 340 342 338 339 340 341 341 341 342 342 343 342 343 342 342 343 343 342 342 343 343 344 343 343 343 342 343 344 344 344 344 344 345 345 345 346 346 346 347 347 348 348 350 351 352 352 353 354 357 356 357 358 358 359 364 367 367 369 370 371 371 373 374 375 379 382 382 383 385 387 391 395 400 406 412 418 425 425 425 426 425 425 418 415 412 414 415 416 417 419 421 421 423 423 423 423 423 425 433 441 450 462 475 476 476 475 476 480 476 475 464 458 450 446 446 444 442 441 439 439 442 445 450 453 457 462 467 469 475 482 489 493 500 508 513 518 525 525 527 525 514 510 500 500 500 495 482 475 468 466 454 454 450 450 447 450 450 457 470 481 488 496 502 508 515 519 519 522 524 526 531 534 538 541 545 550 557 561 571 582 595 606 613 625 627 630 632 636 640 643 648 651 654 658 661 664 667 670 674 676 678 681 684 685 687 690 692 694 695 696 699 700 708 721 730 731 738 750 761 771 780 787 797 804 808 815 822 827 828 827 825 815 803 793 785 777 768 760 752 740 728 725 720 714 707 700 687 675 675 675 675 682 683 683 685 689 690 697 682 675 667 661 653 650 628 625 603 604 601 602 601 600 600 604 609 613 618 620 625 633 641 650 656 660 667 675 683 691 700 706 711 716 720 725 737 750 758 766 775 781 785 792 800 800 801 806 810 814 818 825 825 829 832 837 841 844 850 853 853 850 837 825 816 810 800 800 800 787 775 775 762 758 750 737 725 725 712 700 692 685 685 687 687 687 687 686 681 675 674 675 683 689 700 700 700 709 715 716 711 711 711 710 708 700 687 675 675 662 662 662 650 650 641 639 635 632 625 612 600 592 589 587 587 575 570 570 575 600 600 612 625 628 635 638 643 645 645 648 650 675 677 700 699 707 706 707 712 716 725 725 737 750 762 775
328 327 327 327 327 327 327 326 326 326 326 326 326 326 326 326 326 326 325 325 325 325 325 325 325 325 325 325 325 325 325 325 325 325 325 325 325 325 325 325 325 324 324 324 324 324 324 324 323 324 323 323 323 323 322 323 322 322 322 322 321 321 321 321 321 321 321 321 321 320 320 320 320 320 320 320 320 320 320 320 320 320 320 320 319 319 319 319 319 319 318 318 318 318 317 318 317 317 317 318 317 317 317 317 316 316 316 316 316 315 315 315 315 315 315 314 314 314 314 314 314 314 314 314 314 314 314 314 313 313 313 313 313 313 313 313 313 312 312 312 312 312 311 311 311 311 311 311 310 310 311 310 310 310 310 310 310 310 310 311 310 311 310 310 311 310 311 311 310 310 310 310 311 311 311 311 311 311 311 311 311 311 311 311 311 311 311 311 310 310 310 311 311 311 311 311 311 311 311 311 311 311 311 310 310 311 311 312 312 312 312 312 312 312 312 313 313 313 313 314 313 313 313 313 313 314 314 314 314 315 315 315 315 315 315 316 315 315 316 315 316 316 316 316 316 316 316 316 316 315 316 315 315 315 315 315 315 315 315 315 316 316 316 316 316 316 317 317 317 317 318 318 318 318 319 319 319 319 320 320 320 321 321 321 322 322 322 323 323 323 323 324 324 324 325 325 326 326 326 327 326 328 329 329 329 329 329 330 330 330 331 335 336 337 335 334 333 332 334 335 335 335 335 335 335 335 335 333 335 335 337 340 340 338 338 338 340 341 341 341 341 341 342 341 342 342 342 342 342 341 341 341 343 342 343 343 341 342 343 344 344 343 343 343 342 345 344 345 346 346 346 347 347 348 350 352 353 353 352 352 355 356 357 357 356 357 364 365 366 368 369 369 371 371 372 375 377 378 377 379 382 386 390 395 400 406 412 418 425 425 423 425 425 417 414 411 409 410 411 412 414 417 418 419 420 420 421 421 423 425 435 441 450 462 475 476 475 474 475 475 475 464 460 450 446 442 440 441 439 437 435 437 440 443 445 450 455 460 465 469 475 481 487 493 500 507 511 514 516 525 525 516 510 499 492 489 487 486 475 472 462 450 446 446 447 447 450 453 462 467 475 491 501 503 506 511 513 517 521 525 528 530 533 536 539 543 545 548 550 562 570 581 589 600 620 626 630 632 635 638 642 645 648 651 654 657 661 664 667 670 674 676 679 681 684 685 686 688 693 693 692 694 695 699 706 709 721 725 731 743 750 762 775 784 790 800 807 814 822 826 827 827 825 815 803 793 787 777 768 762 753 750 737 733 725 716 708 700 692 685 675 668 667 675 675 675 679 680 684 685 678 667 661 652 642 637 625 603 607 603 602 601 600 600 603 606 609 613 616 621 625 632 639 643 650 658 664 675 683 689 700 707 714 718 725 725 737 750 758 766 775 781 786 791 793 793 800 804 807 811 815 818 819 825 830 833 838 843 850 852 852 850 837 825 816 808 800 787 775 775 764 762 750 750 739 735 725 716 710 700 691 683 675 675 675 682 681 681 680 675 675 673 675 685 689 692 700 707 712 713 712 713 716 716 712 700 689 687 687 675 675 675 662 660 650 650 641 635 625 612 600 591 587 575 575 575 571 575 587 600 608 614 625 628 633 637 639 641 643 656 650 675 700 703 700 703 700 700 707 710 714 725 737 750 762 775
326 326 327 327 326 327 326 326 326 326 326 326 326 326 326 326 326 325 325 325 325 325 325 325 325 325 325 325 325 325 325 325 325 325 325 325 325 325 325 325 324 324 324 324 324 324 324 324 323 323 323 323 322 323 322 322 322 322 322 322 321 321 321 321 321 321 321 321 321 320 320 320 320 320 320 320 320 320 320 320 320 320 320 320 319 319 319 319 318 319 318 318 318 317 317 317 317 317 317 317 317 316 317 317 316 316 316 316 316 315 315 315 315 315 314 314 314 314 314 314 314 314 314 314 314 314 314 314 313 313 313 313 313 313 313 312 313 313 312 312 312 312 311 311 311 311 311 311 311 310 311 310 310 310 310 310 311 310 310 310 310 310 310 311 311 311 310 311 310 310 310 310 311 311 311 311 311 311 311 312 312 312 311 312 312 311 311 311 310 310 310 311 311 311 311 311 311 311 310 310 310 311 311 310 311 311 311 312 312 312 312 312 312 312 312 313 313 313 313 313 313 313 313 313 313 314 314 314 314 314 315 315 315 315 315 315 315 315 315 315 315 315 315 315 315 315 316 315 315 315 315 315 315 315 315 315 315 315 315 315 315 315 315 315 316 316 316 316 317 317 317 318 318 318 318 319 319 319 320 320 320 320 321 321 322 322 322 322 323 323 323 323 324 324 325 325 325 325 326 326 326 327 328 328 328 328 329 329 329 330 330 332 332 332 331 332 331 334 334 334 335 335 335 335 335 335 335 332 335 334 336 340 338 338 338 338 339 340 340 340 340 341 342 340 342 341 341 341 342 341 341 340 342 342 341 342 341 341 341 343 343 342 344 344 344 343 344 343 345 346 346 346 347 348 350 351 352 352 352 353 353 355 356 357 356 357 360 363 365 367 369 368 369 370 372 372 375 375 375 377 381 386 390 395 400 406 412 417 422 425 425 420 420 414 408 406 405 405 407 409 412 414 416 416 418 418 419 421 423 425 437 450 458 464 475 473 475 468 470 470 466 460 450 446 444 441 437 436 435 434 433 435 438 444 448 452 455 460 465 469 475 481 484 490 493 501 506 512 514 516 516 512 507 499 489 483 475 479 475 464 459 450 444 448 450 450 462 463 475 477 487 500 503 505 508 511 515 518 523 525 529 532 535 538 541 545 547 547 550 562 575 587 594 603 613 625 631 634 637 641 645 650 652 654 656 659 662 665 668 671 675 677 680 682 684 688 689 689 693 693 693 692 695 696 699 706 714 722 730 738 746 750 771 780 787 797 805 813 822 827 829 827 825 817 808 800 789 783 776 767 761 752 743 736 727 719 712 707 700 687 677 667 661 662 662 664 675 672 675 680 677 665 653 642 639 628 615 603 600 600 597 600 601 603 605 608 611 615 618 622 625 631 637 643 650 650 660 666 675 687 700 708 716 725 732 735 739 750 758 766 775 780 785 786 787 792 800 800 805 806 809 813 816 819 825 831 837 843 850 852 852 850 837 825 814 808 800 775 768 766 760 750 750 739 735 725 718 714 707 700 691 683 675 668 667 675 675 675 675 677 675 673 675 675 683 687 692 700 707 710 714 717 717 725 725 712 700 700 700 687 687 675 675 664 660 650 650 639 633 625 612 600 600 575 585 571 571 575 587 600 608 614 625 628 633 633 635 639 644 650 675 677 700 690 700 700 700 689 700 700 712 725 737 750 762 775
326 326 326 326 326 326 326 326 326 326 326 326 326 326 326 326 325 325 325 325 325 325 325 325 325 325 325 325 325 325 325 325 325 325 325 325 325 325 325 325 324 324 324 324 324 324 324 324 323 323 323 323 323 322 322 322 322 322 322 321 321 321 321 321 321 321 321 321 321 320 320 320 320 320 320 320 320 320 320 320 320 320 320 320 319 319 319 318 319 319 318 318 318 317 317 317 317 317 317 317 317 316 317 316 316 316 316 316 316 315 315 315 315 315 314 314 314 314 314 314 314 314 314 314 314 314 314 314 314 313 314 313 313 313 313 312 312 313 312 312 312 312 311 311 311 311 311 311 311 311 311 311 311 310 310 310 310 311 310 310 310 310 310 311 311 311 311 311 310 310 310 311 311 311 311 311 311 311 312 312 312 312 312 312 312 312 311 311 311 311 310 311 311 311 311 311 311 310 310 310 310 311 310 311 311 310 310 311 312 311 312 312 312 312 312 312 312 313 313 313 313 312 313 313 313 313 313 314 314 314 314 315 315 315 315 315 315 315 315 315 315 315 315 315 315 315 315 315 316 315 315 315 315 315 314 314 314 314 314 314 315 315 315 315 316 316 316 316 316 317 317 318 317 318 318 318 319 319 319 320 320 320 321 321 321 322 322 322 322 323 323 323 324 324 324 324 325 325 325 326 327 327 327 327 328 327 328 328 328 329 329 329 331 331 329 333 333 334 333 333 334 333 335 334 334 335 335 332 334 334 335 336 337 337 337 337 338 337 339 341 340 341 341 339 341 341 340 341 340 341 341 340 341 340 341 340 340 339 340 340 343 343 343 343 342 343 344 344 344 345 346 346 346 347 348 350 350 351 351 352 353 354 355 356 356 355 359 362 363 366 368 368 367 369 371 373 374 375 375 379 382 386 390 395 400 405 410 415 417 417 418 416 412 409 403 400 400 402 404 407 410 412 414 415 416 417 420 422 423 425 437 450 458 466 475 472 467 464 464 463 461 457 450 445 441 439 437 434 431 429 428 434 440 444 450 453 457 460 465 469 471 475 481 485 492 500 504 507 510 513 510 507 500 489 485 475 466 471 470 462 450 447 446 450 459 462 475 475 481 483 490 500 503 507 510 513 516 520 525 529 531 534 537 539 542 546 550 550 553 571 582 595 600 611 615 625 633 637 640 641 645 650 652 655 656 659 661 664 668 671 675 677 679 681 684 687 689 690 693 692 690 692 694 697 700 707 714 718 725 735 742 750 775 777 788 800 808 815 822 825 827 827 825 812 800 793 788 781 775 772 764 759 752 742 735 727 716 710 702 692 684 675 653 650 650 660 662 661 662 671 668 664 653 640 628 619 613 607 602 595 594 600 600 603 607 610 613 616 621 625 625 631 636 641 645 650 658 666 675 687 700 708 714 725 733 741 750 756 760 767 775 777 780 781 782 787 792 793 800 800 806 808 813 818 825 831 835 842 850 853 853 850 837 825 812 800 792 785 775 766 758 750 741 735 725 725 718 712 706 700 692 685 681 675 664 662 662 664 675 670 673 675 671 675 675 682 687 692 700 706 713 718 725 721 727 725 725 712 710 700 700 687 683 675 664 660 650 641 635 625 625 612 610 600 575 575 571 575 585 591 600 612 625 623 629 630 633 638 643 650 675 687 700 691 675 675 675 685 691 700 712 725 735 741 750 775
326 326 326 326 326 326 326 326 326 326 326 326 326 326 326 326 326 325 325 326 325 325 325 325 325 325 325 325 325 325 325 325 325 325 325 325 325 325 325 325 324 324 324 324 323 323 323 323 323 323 323 323 323 323 322 322 322 322 322 321 321 321 321 321 321 321 320 320 320 320 320 320 320 320 320 320 320 320 320 320 320 320 320 320 319 319 319 319 319 318 318 318 317 317 317 317 317 317 317 317 317 316 317 316 316 316 316 316 316 316 315 315 315 315 315 314 314 314 314 314 314 314 314 314 314 314 314 314 314 313 313 313 313 313 313 313 312 312 313 313 312 312 311 312 312 311 311 311 311 311 311 311 310 310 310 310 310 310 311 310 310 310 310 311 311 311 311 311 310 310 311 311 311 311 311 311 312 312 312 313 312 312 312 311 311 311 311 311 311 310 310 311 311 311 311 311 310 310 310 310 310 310 311 311 310 310 310 311 311 312 311 311 312 311 312 313 312 312 312 312 312 312 312 313 313 313 313 313 314 314 314 314 315 315 315 315 315 315 315 315 315 315 315 315 315 315 315 315 315 315 315 315 315 314 314 314 314 314 314 314 314 314 315 315 316 315 316 316 316 316 317 317 318 317 318 318 318 319 319 320 320 320 320 321 321 321 322 322 322 322 323 323 323 324 324 324 324 325 325 326 326 326 326 326 327 327 327 328 328 327 328 328 328 331 329 333 332 332 334 333 334 333 334 336 334 334 334 331 333 334 334 334 335 336 336 336 337 338 338 339 339 340 341 338 339 341 340 340 340 340 340 340 340 340 339 339 339 339 339 341 341 342 341 342 341 342 343 343 344 344 345 345 346 347 347 348 348 350 350 351 352 353 354 355 356 355 358 362 362 364 365 366 368 370 371 372 375 376 378 380 383 387 391 395 400 405 408 410 412 411 414 411 407 403 399 398 398 400 403 406 408 410 412 413 415 418 419 422 425 434 439 450 457 464 467 465 461 457 458 457 456 452 450 444 440 437 432 432 429 430 430 435 441 449 453 454 458 461 464 467 470 473 475 482 489 495 500 504 504 504 507 500 494 486 475 465 461 460 457 453 446 447 450 460 464 472 475 480 483 487 492 500 503 507 510 514 517 521 525 529 531 535 539 542 544 547 550 559 563 575 595 605 611 621 625 635 639 642 643 645 645 650 651 653 655 657 661 664 667 670 674 675 679 683 683 686 689 690 690 692 689 691 694 697 700 706 711 716 721 728 737 750 766 777 787 800 807 811 816 825 827 827 825 812 800 794 788 783 779 775 766 758 750 741 735 725 722 710 700 690 682 671 650 648 650 650 650 650 650 658 661 657 650 637 625 617 612 606 600 591 590 593 600 603 607 611 614 617 621 625 629 632 637 642 645 650 658 666 675 685 691 700 712 725 733 741 750 756 762 768 775 775 775 775 775 782 785 790 793 800 800 806 811 816 819 825 832 839 843 850 852 850 850 825 825 812 800 787 775 766 760 750 743 737 732 725 718 712 706 700 689 683 678 675 662 650 650 660 664 675 670 675 668 668 668 675 683 689 700 706 712 718 725 722 727 726 727 725 714 710 700 691 685 681 675 664 658 650 639 633 631 625 612 600 600 575 575 575 583 589 600 610 614 625 625 625 631 637 643 650 675 675 675 682 676 675 681 685 693 700 712 725 733 741 750 775
326 326 326 326 326 326 326 326 326 325 326 326 326 325 325 325 325 325 325 325 325 325 325 325 325 325 325 325 325 325 325 325 325 325 325 325 325 325 325 325 324 324 324 323 323 323 323 323 323 323 323 323 323 322 322 322 322 322 321 321 321 321 321 321 320 321 320 320 320 320 320 320 320 320 320 320 320 320 320 320 320 320 320 320 319 319 319 319 319 318 318 318 318 318 317 317 317 317 317 317 317 316 317 316 316 316 316 316 316 316 315 315 315 315 315 314 314 314 314 314 314 314 314 314 314 314 313 314 314 313 313 313 313 313 313 313 313 312 312 313 312 312 312 312 312 312 311 311 311 311 311 311 311 310 310 310 310 310 310 310 310 310 311 311 311 311 311 311 310 311 311 311 311 311 311 311 311 312 312 312 312 312 311 311 311 311 311 311 311 311 311 311 311 311 311 311 311 310 310 310 310 310 310 310 310 310 310 310 311 311 311 311 311 311 312 312 312 312 311 311 312 312 312 313 313 313 313 313 313 314 314 314 315 315 315 315 315 315 315 315 315 315 315 315 315 315 315 315 315 315 315 315 314 314 314 314 314 313 313 314 314 314 315 315 315 315 316 316 315 316 316 317 318 317 318 318 318 319 319 319 320 320 320 320 321 321 322 321 322 322 322 323 323 323 323 324 324 324 325 325 326 325 326 326 326 326 327 327 327 327 327 328 329 329 328 330 331 332 334 333 332 333 334 334 335 334 333 330 334 334 334 334 333 335 335 334 336 336 336 339 339 340 340 338 339 341 340 340 340 340 339 339 340 339 339 338 338 338 339 339 340 339 340 342 341 342 342 342 343 343 344 345 345 346 346 347 348 349 350 351 351 352 353 354 357 357 360 361 363 364 365 367 369 371 372 375 376 378 380 382 385 388 391 395 398 402 405 405 406 407 409 406 405 400 398 398 398 400 403 405 408 409 412 414 416 418 420 422 425 436 446 450 457 461 460 458 457 450 452 452 450 445 443 441 437 434 431 429 429 425 429 436 445 451 453 456 458 461 464 466 470 472 475 481 485 491 496 500 500 500 501 500 491 483 475 463 452 450 450 449 447 446 450 462 475 476 479 482 486 489 493 500 502 506 510 513 517 520 521 525 530 535 540 545 546 550 558 562 572 575 600 608 614 625 633 639 650 650 650 650 648 647 650 651 653 657 660 663 667 670 671 675 679 682 684 686 690 691 693 694 693 693 694 697 700 705 709 715 720 725 737 750 762 775 785 789 800 808 816 825 827 827 825 812 800 794 789 784 779 775 767 760 756 750 739 733 722 713 708 700 683 671 658 648 639 637 637 638 640 647 652 651 642 635 625 615 604 598 600 587 585 592 600 603 607 612 615 618 620 625 630 634 639 644 650 656 660 667 675 683 691 700 712 725 735 741 750 755 761 764 766 767 768 769 775 775 781 784 790 793 800 805 808 813 818 825 831 837 843 850 852 853 850 837 825 812 800 789 785 775 762 750 750 741 733 725 718 714 707 700 687 675 675 664 660 650 646 650 662 675 667 675 666 662 665 668 675 687 700 706 711 716 719 725 722 725 726 727 725 712 700 691 685 680 675 662 658 650 642 637 633 629 625 612 600 587 575 571 575 585 589 600 610 616 618 625 631 637 638 650 662 662 662 670 672 675 681 685 692 700 712 725 733 739 750 775
326 326 326 326 326 326 326 326 326 326 325 326 325 325 325 325 325 325 325 325 325 325 325 325 325 325 325 325 325 325 325 325 325 325 325 325 325 325 325 324 324 324 323 323 323 323 323 323 323 323 323 322 322 322 322 322 322 322 321 321 321 321 321 320 320 320 320 320 320 320 320 320 320 320 320 320 320 320 320 320 320 320 320 320 319 319 319 319 319 318 318 318 318 318 317 317 317 317 317 317 317 317 317 316 316 316 316 316 315 315 315 315 315 315 315 314 314 314 314 314 314 314 314 314 314 314 313 313 314 313 313 313 313 313 313 313 313 313 312 312 313 312 312 312 312 312 311 311 311 311 311 310 310 311 310 310 310 310 310 310 310 311 310 311 311 311 311 311 311 311 311 311 311 311 311 311 311 312 312 312 312 312 311 311 311 311 311 311 311 311 311 311 311 311 311 311 311 311 310 311 310 310 310 310 310 310 310 310 310 310 310 311 311 311 312 312 312 311 312 312 311 312 313 313 313 313 313 313 313 314 314 314 314 314 314 315 315 314 314 315 315 315 315 315 315 315 315 315 315 315 314 314 314 314 314 314 314 313 313 313 314 314 314 314 315 315 315 316 316 316 316 317 317 317 317 318 318 318 319 319 319 320 320 320 321 321 321 321 321 322 322 322 323 323 323 323 324 324 324 325 325 325 325 326 326 326 327 326 327 327 327 327 329 329 328 329 329 330 331 331 331 333 334 333 334 334 334 332 334 334 334 333 333 333 334 335 335 336 336 337 337 338 339 337 341 340 339 338 337 338 338 338 339 339 338 338 337 337 336 336 338 337 338 340 340 340 340 341 342 342 342 344 344 345 346 347 348 348 350 350 351 351 352 354 355 354 358 360 361 363 365 367 369 372 375 375 377 379 382 384 386 389 391 394 396 400 400 400 400 403 405 402 400 397 397 397 399 400 402 405 407 409 412 414 416 418 420 422 425 437 450 453 454 456 456 450 449 450 446 445 442 440 438 436 433 430 429 425 425 425 429 435 446 451 454 456 459 461 464 466 469 471 473 478 482 488 492 495 495 495 496 493 489 482 475 462 450 444 443 443 445 450 458 464 475 479 482 484 487 491 495 500 502 506 510 513 515 518 521 525 531 537 542 548 550 556 561 566 575 583 589 600 612 625 633 640 650 651 651 651 650 650 650 651 654 657 661 664 667 671 675 678 679 682 686 689 689 696 700 700 696 696 697 697 700 704 709 714 718 721 729 741 750 766 775 787 800 808 814 825 827 827 825 812 800 793 788 783 779 775 768 762 756 750 741 733 725 716 708 700 687 675 662 650 637 625 625 630 632 636 642 643 635 625 614 604 594 600 575 575 583 589 600 604 608 610 614 619 625 629 631 635 640 645 650 656 662 668 675 683 691 700 712 725 737 750 750 755 756 757 758 760 763 766 769 770 775 781 784 790 793 800 806 812 818 825 831 837 843 850 852 851 850 837 825 814 810 800 787 775 764 762 750 741 735 725 725 716 710 700 687 675 675 662 650 650 650 646 650 662 675 664 660 657 660 667 675 687 700 709 708 712 717 720 725 725 725 725 725 712 700 687 683 675 675 650 650 642 639 636 632 628 625 612 600 587 575 571 573 575 587 600 607 610 617 625 631 636 637 650 650 650 650 658 664 675 675 682 689 693 700 712 725 735 739 750
326 326 326 326 326 326 326 326 326 325 325 325 325 325 325 325 325 325 325 325 325 325 325 325 325 325 325 325 325 325 325 325 325 325 325 325 325 325 325 324 324 323 323 323 323 323 323 323 323 323 322 322 322 322 322 322 322 321 321 321 321 320 320 320 320 320 320 320 320 320 320 320 320 320 320 320 320 320 320 320 320 320 320 319 319 319 319 319 318 318 318 318 318 318 317 317 317 317 317 317 317 317 317 317 316 316 316 315 315 315 315 315 315 315 315 315 314 314 314 314 314 314 314 314 314 314 314 313 313 313 313 313 313 313 313 313 313 313 313 312 312 312 312 312 312 312 311 311 311 311 311 311 311 311 310 310 310 310 310 310 310 310 311 310 311 311 311 311 311 311 311 311 311 311 311 311 311 312 312 312 312 312 312 311 311 311 311 311 311 311 311 311 311 311 311 311 311 311 311 310 310 310 310 310 310 310 310 310 310 310 310 310 310 311 312 311 311 311 311 311 311 312 312 313 313 314 313 313 313 313 314 314 314 314 314 314 314 315 315 315 314 315 315 315 315 315 315 315 314 314 314 314 314 314 314 313 313 313 313 313 314 314 314 314 314 315 315 315 316 316 316 317 317 317 317 317 318 318 318 318 319 319 320 320 320 320 321 321 321 321 322 322 322 322 323 323 323 323 323 324 324 325 325 325 326 326 326 327 327 327 327 327 328 328 328 328 329 329 329 329 329 333 333 333 334 334 335 332 334 334 334 333 333 333 334 334 335 335 336 336 336 337 338 336 339 337 336 336 337 336 336 336 336 337 336 336 336 335 335 335 337 337 338 339 340 341 341 343 342 343 343 343 343 344 346 346 346 347 348 349 350 351 352 352 355 354 355 359 361 363 365 367 369 372 375 377 378 379 382 385 386 389 390 392 395 397 398 397 399 405 400 400 396 396 396 398 398 400 402 405 407 409 411 413 416 418 421 423 425 437 450 450 452 452 450 443 443 443 442 439 436 434 432 431 430 425 425 423 423 425 425 437 450 452 454 456 459 461 463 466 468 470 471 475 480 485 488 490 491 492 491 489 485 481 475 462 450 443 438 440 443 450 458 466 475 477 481 485 489 493 498 501 503 506 509 511 514 517 521 525 531 537 543 550 555 559 565 572 578 584 592 600 611 622 630 639 650 651 653 652 652 652 651 654 655 658 661 664 668 671 675 677 679 682 686 686 692 696 700 699 700 700 700 700 701 704 708 712 716 720 725 737 750 762 775 785 789 800 810 816 825 821 817 810 800 793 787 781 776 775 768 762 756 750 741 733 725 716 708 700 687 675 662 650 637 625 613 621 621 625 626 634 632 625 605 600 587 575 582 572 575 587 600 604 605 608 613 618 625 629 633 637 641 645 650 657 664 668 675 685 691 700 712 725 737 750 745 750 750 750 750 756 758 762 765 767 770 775 782 789 793 800 806 812 818 825 831 836 841 845 850 850 850 850 837 825 814 810 800 787 775 775 762 750 739 735 725 725 712 700 689 687 675 662 650 660 645 644 650 660 664 660 650 650 658 666 675 685 691 700 705 709 714 719 725 725 725 725 714 710 700 675 675 662 650 650 641 637 632 631 630 628 625 612 600 587 575 571 571 572 575 600 600 608 616 625 631 634 636 650 637 639 642 650 660 666 675 681 685 691 700 712 725 725 737 750
326 326 326 326 326 326 326 325 325 325 325 325 325 325 325 325 325 325 325 325 325 325 325 325 325 325 325 325 325 325 325 325 325 325 325 325 325 325 324 324 323 323 323 323 323 323 323 323 322 323 322 322 322 322 322 322 321 321 320 320 320 320 320 320 320 320 320 320 320 320 320 320 320 320 320 320 320 320 320 320 320 320 320 319 319 319 319 318 318 318 318 318 318 318 317 317 317 317 317 317 317 317 316 317 316 316 316 315 315 315 315 315 315 315 315 315 315 314 314 314 314 314 314 314 314 314 314 314 313 313 313 313 313 313 313 313 313 313 312 312 312 312 312 312 312 312 311 311 311 311 311 311 311 311 311 311 310 310 310 310 310 310 310 310 310 310 311 311 311 311 311 311 311 311 311 311 311 311 311 312 311 311 311 311 311 311 311 311 311 311 311 311 311 311 311 311 310 311 310 310 310 310 310 310 310 310 310 309 310 310 310 311 311 311 311 311 311 310 312 311 311 311 312 312 313 313 313 313 313 313 313 314 314 314 314 314 314 314 314 314 315 314 314 314 314 314 314 314 314 314 314 314 314 313 313 313 313 313 313 313 314 314 314 314 314 314 315 315 315 316 316 317 317 317 317 318 318 318 318 318 318 319 320 320 320 320 320 321 321 321 321 321 322 322 322 323 323 323 323 323 323 324 325 325 326 326 327 327 328 328 327 327 327 328 328 328 329 328 328 328 329 332 332 332 333 334 334 330 331 331 331 331 331 331 332 333 334 334 334 334 335 335 335 335 336 335 335 335 336 336 336 336 338 338 338 339 336 336 335 336 337 338 338 338 339 341 341 342 342 342 342 343 343 344 345 346 346 347 348 348 350 350 351 351 352 353 354 356 360 363 365 368 370 373 375 378 379 379 381 384 386 387 388 389 391 392 391 391 396 397 402 398 394 393 396 398 400 400 402 405 407 409 410 412 415 418 421 425 433 438 446 448 450 450 442 439 437 439 438 434 432 427 427 425 425 422 423 422 425 428 433 438 450 452 455 457 459 461 463 465 467 468 470 473 477 482 484 485 487 488 488 485 482 476 475 462 450 442 436 437 442 450 459 466 475 478 482 485 489 493 498 500 503 504 507 510 513 517 521 525 531 537 543 550 553 560 566 572 579 585 592 600 610 622 630 638 650 651 653 654 653 655 654 655 659 659 662 665 668 670 672 675 678 682 683 689 692 696 700 698 701 700 702 703 703 705 708 712 716 720 725 735 740 750 762 775 787 800 807 813 814 811 810 800 793 791 786 781 775 768 765 759 756 750 741 733 725 716 708 700 687 675 662 650 637 625 608 600 600 600 625 625 625 608 603 582 582 577 571 572 575 585 591 600 600 606 612 618 625 629 634 639 643 645 650 658 666 675 683 689 700 708 714 725 735 739 750 750 743 743 744 750 755 759 761 764 769 775 783 791 800 800 806 812 818 825 830 835 840 845 850 851 850 850 839 835 825 812 800 789 787 775 775 762 750 739 735 732 725 700 700 700 687 675 675 650 650 646 646 650 658 650 654 650 658 666 675 683 691 700 704 707 715 719 722 726 725 725 712 700 687 675 662 650 639 637 635 632 625 625 625 625 625 612 600 587 575 571 569 571 575 587 600 607 612 614 625 633 625 625 625 633 639 650 657 662 666 675 682 685 689 700 712 725 737 750
326 326 326 326 326 325 325 325 325 325 325 325 325 325 325 325 325 325 325 325 325 325 325 325 325 325 325 325 325 325 325 325 325 325 325 325 325 325 324 324 323 323 323 323 322 323 323 323 322 322 322 322 322 322 322 321 321 321 321 320 320 320 320 320 320 320 320 320 320 320 320 320 320 320 320 320 320 320 320 320 320 320 319 319 319 319 318 318 318 318 318 318 318 317 317 317 317 317 317 317 317 317 317 317 316 316 316 315 315 315 315 315 315 315 315 315 315 315 314 314 314 314 314 314 314 314 314 314 314 314 314 314 313 313 313 313 313 313 313 313 313 312 312 312 312 312 312 311 311 311 311 311 311 311 311 311 311 310 310 310 310 310 310 310 310 310 310 311 311 311 311 311 311 311 311 311 311 311 311 311 311 312 311 311 311 311 311 311 311 311 311 311 312 311 311 311 311 310 311 310 310 310 310 310 309 310 309 309 310 310 310 310 310 310 310 311 311 310 311 312 311 312 312 312 312 313 313 313 313 313 313 314 314 314 314 314 314 314 314 314 314 314 314 314 314 314 313 313 314 314 313 313 313 313 313 313 313 313 313 313 313 313 314 314 314 314 315 315 315 315 316 316 316 317 317 317 317 318 318 318 318 319 319 320 320 320 320 320 321 321 321 321 321 322 322 322 322 323 323 323 323 324 324 325 325 326 327 327 328 328 327 326 326 328 328 328 328 328 328 328 329 329 331 333 331 332 331 330 330 331 330 330 330 331 332 332 332 333 334 334 335 335 335 334 335 334 335 335 335 335 335 336 336 336 337 337 336 337 336 336 337 338 339 338 339 341 341 342 342 342 343 342 343 344 343 345 347 348 348 348 349 349 350 350 350 350 353 355 357 361 364 368 371 375 375 376 377 378 380 382 383 384 385 386 387 388 388 389 393 391 394 390 391 387 390 394 399 401 403 406 407 407 408 410 414 416 420 423 428 436 442 450 443 442 438 433 431 433 434 431 427 425 422 422 422 422 422 422 425 432 438 441 450 452 456 458 460 461 463 464 466 467 468 470 475 479 480 481 483 484 486 484 480 476 468 461 450 439 432 433 439 450 461 472 475 479 482 486 489 492 495 500 500 503 506 508 512 516 520 525 531 537 542 548 553 560 567 572 581 588 592 600 610 616 625 632 650 651 653 655 655 655 656 657 660 662 662 665 667 669 671 675 678 680 685 687 688 695 694 700 702 702 703 705 706 707 710 712 713 721 724 730 738 750 761 772 783 796 799 807 808 800 800 793 789 786 783 780 775 768 762 756 750 743 739 732 726 718 709 700 687 675 650 641 635 625 603 594 589 596 603 603 603 600 582 582 577 577 575 575 582 587 593 600 600 606 612 618 625 630 635 640 645 650 656 660 667 675 683 691 700 706 714 718 725 735 737 739 739 738 743 750 754 756 759 765 768 775 783 791 800 805 808 813 818 825 830 835 839 844 850 852 852 852 850 837 825 825 812 800 800 787 783 775 762 750 741 733 725 725 712 712 700 687 685 675 650 650 648 650 650 650 650 656 660 667 675 682 685 687 700 705 708 713 718 725 725 725 712 700 687 675 650 639 635 625 625 625 616 616 616 614 612 600 600 587 575 569 567 570 575 585 591 600 606 608 600 600 600 612 616 625 635 641 650 658 662 675 675 675 685 691 700 712 725 737
326 326 326 326 326 326 325 325 325 325 325 325 325 325 325 325 325 325 325 325 325 325 325 325 325 325 325 325 325 325 325 325 325 325 325 325 324 324 324 324 323 323 323 323 322 323 323 322 322 322 322 322 322 322 321 321 321 321 321 320 320 320 320 321 320 320 320 320 320 320 320 320 320 320 320 320 320 320 320 320 320 320 319 319 319 319 318 318 318 318 318 318 318 318 317 317 317 317 317 317 317 317 317 316 316 316 316 316 315 315 315 315 315 315 315 315 315 315 315 314 314 314 314 314 314 314 314 314 314 313 313 313 313 313 313 313 313 313 313 313 313 312 312 312 312 312 312 312 312 312 311 311 311 311 311 311 311 311 311 311 311 310 310 310 310 310 311 310 310 310 311 311 311 311 311 311 311 311 311 311 311 311 311 311 311 311 311 311 311 311 311 311 311 312 311 311 311 311 310 310 310 310 310 309 309 309 309 309 309 309 310 310 310 310 310 310 310 311 311 311 311 312 312 312 313 312 313 313 313 313 313 313 313 313 314 313 314 314 313 313 314 313 313 313 313 313 313 313 313 313 313 313 313 313 313 313 313 313 313 313 313 313 313 314 314 314 314 314 315 315 316 316 317 317 317 317 317 317 317 318 318 318 319 319 320 320 320 320 320 321 321 321 321 322 322 322 323 322 322 323 323 323 324 325 325 326 326 326 326 327 326 326 326 327 327 328 327 328 328 328 328 329 331 332 331 331 331 329 330 331 330 329 330 331 331 332 332 332 334 335 335 335 335 335 334 333 332 332 333 335 333 333 335 334 337 338 337 337 336 336 336 337 339 338 340 342 341 342 342 341 342 343 342 344 345 345 347 348 347 348 349 349 350 350 349 350 351 355 358 359 364 368 371 375 375 376 376 377 379 380 380 381 382 382 383 384 385 383 384 384 382 388 386 386 391 395 400 402 403 405 405 405 407 409 413 417 420 425 431 435 440 444 441 437 433 427 425 427 430 426 424 423 422 421 422 422 422 425 432 437 442 446 451 453 456 459 461 462 463 464 463 465 466 468 470 475 476 479 479 481 481 482 479 476 466 454 444 436 425 425 437 450 470 475 476 480 482 484 487 489 493 498 496 500 505 508 511 515 520 525 532 538 542 548 554 563 567 575 586 596 600 609 614 625 630 637 646 650 652 654 656 656 657 660 660 663 665 667 667 672 672 675 677 680 684 684 686 693 696 700 702 703 705 703 706 709 710 710 714 719 721 725 737 750 759 765 775 787 799 798 800 797 789 787 783 781 780 775 768 764 759 756 750 743 737 731 726 717 709 700 687 675 653 643 635 625 612 600 590 575 582 600 600 582 575 574 574 572 575 581 585 592 600 607 608 610 613 618 625 631 636 641 645 650 656 662 668 675 683 691 700 705 709 715 718 725 725 733 734 738 740 742 750 750 758 766 775 775 783 791 800 805 810 814 819 825 830 833 838 843 850 852 853 853 850 850 837 835 825 812 800 791 789 787 775 750 742 739 737 735 725 725 712 700 687 675 662 650 650 649 649 651 650 656 662 668 675 675 675 675 687 700 706 710 717 725 721 725 712 700 675 662 650 637 625 618 617 614 610 608 608 608 600 589 587 585 575 568 565 568 575 583 591 600 600 600 602 602 600 610 616 625 633 639 643 650 650 662 666 675 685 691 700 712 725 737
326 326 326 325 325 326 326 326 325 325 325 325 325 325 325 325 325 325 325 325 325 325 325 325 325 325 325 325 325 325 325 325 325 325 325 325 324 324 324 323 323 323 323 323 323 323 323 323 322 322 322 322 321 321 321 321 321 321 321 320 320 321 320 321 320 320 320 320 320 320 320 320 320 320 320 320 320 320 320 320 320 319 319 319 319 319 318 318 318 318 318 318 318 318 318 317 317 317 317 317 317 317 317 316 316 316 316 316 315 316 316 315 315 315 315 315 315 315 315 315 314 314 314 314 314 314 314 314 314 314 313 313 313 313 313 313 313 313 313 313 313 312 312 312 312 312 312 312 312 312 311 311 311 311 311 311 311 311 311 311 310 310 310 310 310 310 311 310 310 311 311 311 311 311 311 311 311 311 311 311 311 311 311 311 311 311 311 311 311 311 311 311 311 311 312 311 311 311 310 310 310 310 309 309 309 309 309 309 309 309 309 309 310 309 310 310 310 311 311 311 311 311 312 312 312 312 313 313 313 313 313 313 313 313 313 313 313 313 313 313 314 313 313 313 313 313 313 313 313 313 313 313 313 313 313 313 312 313 313 313 313 313 313 314 314 314 314 314 315 315 315 316 316 317 317 317 317 317 317 317 317 318 318 319 319 320 320 320 320 320 321 320 321 321 321 322 322 322 322 323 323 323 324 325 325 325 326 325 326 326 326 326 327 327 327 326 327 327 327 328 328 328 328 330 331 331 330 329 330 330 330 330 331 331 331 331 330 333 333 334 334 334 334 335 334 333 333 332 333 333 333 333 334 334 336 338 338 337 336 336 336 336 338 339 339 341 339 341 342 342 342 342 343 345 345 346 346 347 348 348 349 349 349 349 350 350 353 357 359 363 366 370 372 375 375 375 375 377 377 378 378 378 378 378 379 381 382 385 381 378 379 375 383 385 390 397 399 401 404 403 403 402 404 409 414 417 422 425 430 435 439 439 437 433 431 425 421 425 426 426 422 421 421 421 422 421 425 432 436 442 450 450 453 456 458 460 462 464 463 462 461 461 462 464 466 470 475 475 476 478 478 478 477 475 466 454 443 434 425 423 432 450 470 475 476 478 479 481 484 486 489 492 493 498 503 509 513 517 520 525 533 540 547 555 561 566 575 582 595 603 605 611 622 628 632 638 643 650 652 654 655 657 658 659 660 662 664 667 670 672 674 676 677 679 684 687 690 693 697 700 701 702 705 703 705 705 710 709 711 718 720 725 736 746 755 765 775 785 790 800 790 787 785 777 777 775 775 764 761 757 756 750 742 739 734 731 725 713 702 700 687 675 665 650 637 627 615 603 590 575 575 587 578 578 570 571 573 571 574 579 587 593 600 610 616 617 618 619 625 631 637 643 650 650 656 662 668 675 683 691 700 700 706 711 714 716 717 725 725 733 737 740 743 750 758 766 775 775 783 791 800 803 809 813 817 820 825 831 837 843 850 853 857 857 857 859 850 839 833 825 812 800 800 800 775 762 750 750 750 739 733 725 712 700 687 675 662 650 654 650 649 650 652 655 661 664 666 667 668 675 675 700 700 707 712 717 725 725 712 700 675 662 650 637 625 621 614 608 600 600 600 600 600 587 575 575 566 564 562 567 575 582 587 592 593 594 601 610 600 612 625 635 639 642 647 650 650 660 666 675 687 700 700 712 725 735
326 326 325 325 325 326 326 326 325 325 325 325 325 325 325 325 325 325 325 325 325 325 325 325 325 325 325 325 325 325 325 325 325 325 324 324 324 324 323 323 323 323 323 323 323 323 323 323 322 322 322 322 321 321 321 321 321 321 321 321 321 321 320 320 320 320 320 320 320 320 320 320 320 320 320 320 320 320 320 320 319 319 319 319 319 318 318 318 318 318 318 317 317 317 317 317 317 317 317 316 316 316 316 316 316 316 316 316 316 316 315 315 315 315 315 315 315 316 316 315 315 314 314 314 314 314 314 313 313 314 313 313 313 313 313 313 313 313 313 313 313 312 312 312 312 312 312 312 312 312 311 311 311 311 311 311 311 311 311 310 310 310 310 310 310 310 311 310 310 311 311 311 311 311 311 311 311 311 311 311 311 311 311 311 311 311 311 311 311 311 311 311 311 311 311 312 311 311 310 310 310 309 309 309 309 308 308 308 308 309 309 310 310 310 309 310 310 310 310 310 311 311 311 311 312 313 312 313 313 313 313 313 313 313 313 313 313 313 313 313 313 313 313 313 313 313 313 313 313 313 313 312 312 312 312 312 312 312 312 313 313 313 313 313 314 314 314 314 315 315 315 315 316 316 316 316 317 317 317 317 317 318 318 318 319 319 319 320 320 320 320 320 321 321 321 321 321 322 322 322 323 323 324 325 325 325 325 325 326 326 325 326 326 326 326 326 327 326 327 327 328 328 328 328 329 330 330 329 330 330 330 330 331 330 330 331 331 333 333 333 334 334 333 333 333 333 333 333 334 334 332 334 332 333 336 337 337 337 337 336 338 338 338 339 341 340 340 341 341 342 342 342 343 345 345 345 345 347 347 348 348 349 349 349 350 353 354 357 361 363 366 371 375 374 374 374 375 376 376 376 375 375 375 375 378 379 380 379 376 375 373 375 382 387 393 400 400 402 402 402 400 400 406 412 417 421 422 426 430 434 436 436 433 430 425 422 418 420 425 421 420 420 421 422 422 424 429 435 441 447 450 451 454 457 460 463 465 465 464 462 460 458 458 460 461 467 469 470 471 475 475 475 475 469 461 450 438 428 425 422 440 457 470 475 475 475 475 479 480 481 485 489 493 498 504 511 516 519 525 525 534 541 550 559 564 568 575 585 596 604 611 615 622 628 633 638 644 650 651 654 656 657 660 661 664 664 667 670 671 673 675 677 678 678 681 683 686 691 696 700 700 701 703 704 704 705 707 709 711 718 721 724 733 746 755 762 772 779 786 787 785 780 777 770 770 769 764 760 752 750 750 741 737 732 731 726 725 705 702 682 675 675 662 650 637 627 625 600 587 575 574 575 570 567 567 569 571 574 575 581 587 593 600 612 625 625 625 625 625 632 639 643 650 655 658 663 668 675 682 687 692 700 705 706 707 708 712 717 725 732 738 740 743 750 758 764 775 781 785 792 800 803 807 810 815 820 825 831 837 843 850 853 856 860 861 869 850 837 833 825 825 806 790 800 787 775 762 758 750 742 735 731 725 700 689 683 675 662 650 648 646 650 652 655 656 657 658 660 665 668 675 687 700 700 708 714 725 725 712 700 675 675 650 650 637 625 617 614 610 600 575 575 575 575 562 562 560 557 558 564 575 575 582 585 592 600 600 600 625 625 635 639 650 650 650 662 662 675 675 687 700 700 712 725 725 737
326 326 326 325 325 326 326 325 325 325 325 325 325 325 325 325 325 325 325 325 325 325 325 325 325 325 325 325 325 325 325 325 324 324 324 324 323 323 324 323 323 323 323 323 323 323 322 322 322 321 321 321 321 321 321 321 321 321 321 321 320 320 320 320 320 320 320 320 320 320 320 320 320 320 320 320 320 320 320 320 319 319 319 319 319 318 318 318 318 318 318 317 317 317 317 317 317 317 317 317 316 316 316 316 316 316 316 316 316 315 315 315 316 315 316 316 316 316 316 316 315 315 314 314 314 314 314 314 314 314 314 313 313 313 313 313 313 313 313 313 312 312 312 312 312 312 312 312 312 312 311 311 311 311 311 311 311 311 311 311 310 311 311 310 310 310 311 311 310 311 310 311 311 311 311 311 311 311 311 311 311 311 311 311 311 311 311 311 311 311 311 311 311 311 311 311 311 311 311 310 309 309 309 308 308 308 307 307 307 308 308 309 309 309 310 310 310 310 310 310 310 311 311 311 311 312 312 312 312 313 313 312 313 313 313 313 313 313 313 313 313 313 312 312 312 312 313 313 313 313 312 312 312 312 312 312 312 312 312 312 313 313 313 313 313 314 314 314 314 315 315 315 315 316 316 317 317 317 316 317 317 317 318 318 318 319 319 319 320 320 320 320 320 321 321 321 321 321 322 322 322 323 324 323 325 325 325 325 325 325 325 325 325 326 326 326 326 326 326 327 327 327 327 327 328 329 329 330 330 330 329 330 330 331 330 330 331 333 333 333 334 333 333 333 333 333 333 333 333 333 333 332 332 332 334 335 338 336 336 338 338 338 337 339 339 340 340 341 341 340 340 343 343 345 346 346 346 347 347 348 348 348 349 349 350 353 356 359 361 364 366 371 375 374 375 375 375 375 375 373 373 373 373 373 375 378 378 375 375 375 375 375 381 387 393 400 400 401 401 400 400 400 406 412 418 425 425 427 429 431 433 433 429 425 419 417 414 418 419 418 417 420 421 425 425 425 433 441 450 453 454 455 458 460 464 465 467 467 465 463 460 457 454 456 458 462 464 465 468 470 470 469 469 463 458 450 438 427 422 423 440 456 463 467 468 469 470 475 475 478 484 490 494 498 505 513 522 522 528 533 538 547 555 564 568 573 575 585 597 605 613 622 625 628 634 639 644 650 653 655 657 658 660 660 663 664 666 668 670 672 675 677 680 682 683 686 691 693 696 697 700 700 701 702 704 706 707 709 710 718 721 724 731 738 750 760 772 775 778 777 775 772 768 764 763 763 759 752 745 742 739 735 732 725 725 725 715 700 682 675 662 653 650 640 635 625 608 600 587 575 566 568 565 563 567 570 575 577 580 582 588 593 600 612 625 629 630 631 632 637 642 650 650 655 660 663 667 669 675 683 689 700 700 700 700 700 708 716 725 732 735 738 742 746 750 762 775 777 785 791 800 800 805 810 814 819 825 831 836 840 843 850 853 856 856 850 845 825 825 812 812 800 791 775 775 775 764 758 750 741 735 727 725 700 691 683 675 662 650 649 644 650 650 650 650 650 650 656 660 667 675 685 691 693 700 710 716 716 710 700 687 683 675 650 650 637 625 625 612 600 575 575 562 550 550 550 550 550 550 560 564 567 575 585 591 600 610 612 625 633 639 650 657 660 662 675 675 675 700 700 710 712 725 735 737 750
326 326 326 325 325 325 325 325 325 325 325 325 325 325 325 325 325 325 325 325 325 325 325 325 325 325 325 325 325 325 325 324 324 324 324 324 324 323 324 323 323 323 323 322 322 322 322 321 321 322 321 321 321 321 321 321 321 321 320 320 320 320 320 320 320 320 320 320 320 320 320 320 320 320 320 320 320 320 320 319 319 319 319 319 318 318 318 318 318 318 317 317 317 317 317 317 317 317 316 317 317 316 316 316 316 316 316 316 316 315 315 315 315 315 315 315 315 316 316 316 315 315 315 314 314 314 314 314 313 313 313 313 313 313 313 313 313 313 313 313 313 312 312 312 312 312 312 312 311 312 311 311 311 311 311 311 311 311 311 311 310 310 311 311 310 310 310 311 311 311 311 311 311 311 311 311 311 311 311 311 311 311 311 311 311 311 311 311 311 311 311 311 311 311 311 311 311 311 310 310 309 309 309 308 308 308 307 307 308 308 308 309 309 309 309 309 310 310 310 310 310 310 311 311 311 311 312 312 312 312 312 312 312 313 313 313 313 313 313 313 313 312 312 312 312 312 313 312 312 312 312 312 312 312 312 312 312 312 312 312 312 313 313 313 313 313 314 314 314 315 315 315 315 315 316 317 317 316 317 317 317 317 318 318 318 318 318 319 319 319 320 320 320 320 321 321 321 321 321 321 322 323 323 323 323 324 324 325 325 325 325 325 325 325 326 326 326 326 326 326 326 326 326 328 328 328 328 329 329 329 328 329 329 330 330 330 329 332 332 333 333 333 333 333 333 332 332 332 333 333 332 333 332 332 333 334 335 337 335 338 338 338 339 338 339 339 339 340 342 340 340 341 343 344 346 346 346 347 347 348 348 348 349 349 350 352 354 357 360 364 367 370 372 375 372 373 373 373 373 372 372 372 372 372 373 375 375 375 373 373 375 377 381 387 393 400 400 400 400 400 401 402 408 414 418 425 425 425 426 427 431 429 429 425 417 413 410 413 414 415 417 421 425 431 432 435 439 442 450 454 457 458 460 464 466 469 470 469 467 462 458 455 450 452 455 458 461 461 463 465 466 466 463 457 450 438 431 425 421 429 450 457 461 462 463 464 467 470 475 482 487 492 500 504 508 516 525 528 533 537 542 550 557 564 567 575 583 586 597 605 613 622 628 632 638 641 647 652 654 657 658 659 661 661 663 665 667 668 670 673 675 677 678 682 684 686 690 692 694 696 697 699 700 702 704 708 708 709 711 715 720 722 725 737 750 759 765 775 775 769 764 762 761 757 756 757 756 750 743 737 733 727 725 723 716 713 703 700 675 663 652 642 637 625 625 605 600 581 575 567 562 559 559 562 567 575 576 579 582 584 589 594 600 612 625 629 632 636 639 642 650 650 652 653 657 660 663 668 675 675 687 700 700 694 698 700 708 716 725 730 735 737 742 744 746 750 762 775 782 785 789 800 805 808 813 818 825 830 831 835 842 850 852 854 855 850 825 814 812 800 800 787 775 769 750 750 760 745 750 737 733 725 712 700 689 683 675 664 658 650 639 650 625 625 637 637 639 650 658 666 675 682 685 692 700 707 708 710 707 700 691 683 675 675 650 639 635 625 612 600 587 575 562 550 545 546 546 546 547 550 560 566 575 587 600 608 614 625 631 635 642 650 658 664 675 675 683 687 700 710 714 725 735 739 750 762
326 326 325 325 325 325 325 325 325 325 325 325 325 325 325 325 325 325 325 325 325 325 325 325 325 325 325 324 325 324 324 324 323 323 323 323 323 323 323 323 322 322 322 322 322 322 321 321 321 321 321 321 321 321 321 321 320 320 320 320 320 320 320 320 320 320 320 320 320 320 320 320 320 320 320 320 320 320 319 319 319 319 319 318 318 318 318 318 318 318 318 317 317 317 317 317 316 316 317 317 317 316 316 316 316 316 316 315 315 315 315 315 315 315 315 315 315 315 316 315 315 315 315 314 314 314 314 314 313 313 313 313 313 313 313 313 313 313 312 312 312 312 312 312 312 312 311 312 311 311 311 311 311 311 311 311 311 310 311 311 311 311 311 311 311 310 310 310 311 311 311 311 310 310 311 311 311 311 311 311 311 311 311 311 311 311 311 311 311 311 311 311 311 311 311 311 310 310 309 309 309 309 309 308 308 307 306 306 307 307 308 308 308 309 309 309 309 310 310 310 310 311 310 310 310 311 311 311 311 311 312 313 313 313 313 313 314 313 313 313 312 312 312 312 312 311 312 312 312 312 312 312 312 312 312 312 312 312 312 312 312 313 313 313 313 314 314 314 314 315 315 315 315 316 316 316 316 317 317 317 317 318 318 318 318 319 318 319 319 319 319 319 320 320 320 321 321 321 321 321 321 321 322 322 323 323 323 324 324 324 324 324 325 325 325 326 326 326 326 326 326 326 326 327 327 328 328 328 328 329 328 329 329 329 330 330 329 332 333 332 332 332 331 331 332 332 332 333 333 332 333 333 332 332 333 333 333 334 335 337 337 338 336 336 337 337 337 339 341 340 341 342 343 345 345 345 344 347 347 347 347 348 349 349 349 351 353 356 360 363 365 368 370 369 369 367 371 371 371 371 370 370 370 371 372 372 372 373 373 374 375 378 383 389 393 400 399 400 400 397 400 406 410 417 425 425 425 421 422 425 427 427 425 421 414 409 406 408 412 416 419 421 425 431 437 441 450 450 454 456 458 461 464 466 469 471 475 475 468 464 457 450 451 449 450 454 456 458 459 461 462 463 460 456 450 437 425 423 425 437 450 452 456 456 460 465 468 475 483 488 492 500 501 506 513 525 530 533 538 543 550 557 562 567 575 581 587 592 600 610 616 625 631 637 643 647 650 655 657 659 660 661 663 663 664 665 667 669 671 672 674 676 679 682 684 686 689 691 693 695 696 697 700 700 706 707 707 708 711 715 719 721 724 733 746 754 761 767 768 765 760 752 752 750 750 751 750 742 739 734 731 725 719 717 714 710 707 700 675 663 652 640 628 617 612 600 578 575 561 550 550 550 554 560 567 575 577 579 582 586 591 595 600 610 616 625 631 637 643 650 643 646 651 650 654 656 659 665 668 675 685 691 692 693 700 706 710 717 725 731 735 741 740 744 746 750 762 775 775 775 785 791 800 806 812 818 825 825 825 833 841 850 850 847 850 837 825 812 800 800 787 775 775 750 750 742 750 750 725 725 725 712 700 687 685 675 675 662 658 650 650 625 625 619 625 625 637 650 657 664 668 675 682 689 693 700 700 706 706 700 692 685 681 675 662 650 637 625 614 610 600 587 575 550 546 550 550 550 550 550 562 575 585 589 600 608 616 625 631 635 642 650 650 660 662 675 683 687 700 712 725 732 739 750 758 764
325 325 326 325 325 325 325 325 325 325 325 325 325 325 325 325 325 325 325 325 325 325 325 325 325 325 324 324 324 324 324 324 324 323 323 323 323 323 323 323 322 322 322 322 321 321 321 321 321 321 321 321 321 321 321 321 321 320 320 320 320 320 320 320 320 320 320 320 320 320 320 320 320 320 320 320 320 319 319 319 319 319 318 318 318 318 318 318 318 317 317 317 317 317 317 317 317 316 317 317 317 316 316 316 316 316 316 315 315 315 315 315 315 315 315 315 315 316 316 315 315 315 315 315 314 314 314 314 313 313 313 313 313 313 313 313 313 312 313 313 312 312 312 312 312 312 311 311 311 311 311 311 311 311 311 311 311 311 311 311 311 311 311 311 310 310 310 311 310 310 311 311 311 311 311 310 310 310 310 310 311 311 311 311 311 310 310 310 311 311 311 311 311 311 310 311 310 310 309 309 309 309 309 308 308 308 307 307 307 307 308 308 308 308 309 309 309 309 310 310 310 310 310 310 311 310 311 311 311 311 312 312 312 312 312 313 313 313 313 312 312 312 311 312 313 311 312 311 311 311 311 311 311 311 311 311 311 312 312 312 312 312 313 313 313 314 314 314 315 315 315 315 315 315 316 316 317 316 317 317 318 318 318 318 318 318 319 319 319 319 319 319 319 320 320 320 320 320 320 321 321 321 322 322 322 323 323 323 323 324 324 324 324 325 325 325 326 326 326 326 326 326 326 327 327 327 328 327 328 328 327 327 327 329 329 329 329 331 331 331 332 332 331 331 331 332 332 332 332 332 332 333 332 332 333 333 333 335 335 336 337 335 336 336 336 337 337 337 339 340 340 339 341 344 344 344 345 347 347 346 347 347 348 349 349 350 353 356 359 362 364 366 368 367 367 366 366 369 370 369 369 368 370 370 371 371 372 372 373 375 375 375 383 390 397 400 399 400 397 395 398 401 408 415 420 422 420 418 420 425 422 425 420 412 409 404 400 406 412 417 423 425 431 434 440 443 450 454 457 460 462 463 466 469 471 475 475 476 475 466 458 450 450 448 447 450 451 454 455 457 458 459 458 454 450 437 425 422 425 435 440 450 450 452 459 467 475 485 489 494 500 498 499 507 515 525 531 536 541 546 552 558 566 575 581 585 590 595 600 612 625 625 633 638 643 650 654 658 660 662 663 664 665 665 665 666 668 669 672 673 675 677 680 682 686 687 688 690 692 694 695 697 700 702 705 705 707 710 712 715 718 721 724 731 740 750 756 761 764 759 756 752 742 739 738 742 741 737 733 731 726 725 718 713 708 706 705 700 682 665 653 640 628 615 603 590 578 565 553 551 547 549 554 560 567 573 575 577 581 585 591 595 600 608 614 625 631 633 633 636 650 650 650 650 650 650 656 660 667 675 682 683 685 692 700 706 710 717 725 730 735 738 742 745 750 750 760 766 768 775 783 791 800 806 811 816 819 820 825 832 839 843 844 850 850 839 833 825 800 787 775 764 762 750 743 739 737 725 722 712 700 700 700 675 675 664 662 650 656 650 650 637 625 616 617 625 637 650 656 662 668 675 681 684 690 693 693 700 704 700 692 685 681 675 650 641 635 625 625 612 600 587 575 550 545 550 546 556 557 560 564 575 587 600 604 609 615 618 625 632 637 642 643 650 650 662 675 675 700 700 712 725 737 750 758 764
325 325 325 325 325 325 325 325 325 325 325 325 325 325 325 325 325 325 325 325 325 325 325 325 324 324 324 324 324 324 324 323 323 323 323 323 323 323 323 322 322 322 322 322 321 321 321 321 321 321 321 321 321 320 320 321 321 320 320 320 320 320 320 320 320 320 320 320 320 320 320 320 320 320 320 319 319 319 319 319 319 318 318 318 318 318 318 318 318 318 317 317 317 317 317 317 317 316 317 316 317 316 316 316 316 316 316 315 315 315 315 315 315 315 315 315 315 315 316 315 315 315 315 315 314 314 314 314 313 313 313 313 313 313 313 313 313 313 313 313 312 312 312 312 312 312 312 311 311 311 311 311 311 311 311 311 311 311 311 311 311 311 311 310 310 310 310 311 311 310 310 311 310 310 311 310 310 310 310 310 311 311 311 311 311 310 310 311 311 310 310 310 310 310 310 311 310 309 309 309 309 309 309 309 308 308 308 307 307 307 307 308 308 308 308 309 309 309 309 310 310 310 311 310 311 311 311 311 311 311 311 312 312 312 312 312 313 312 312 313 312 312 312 311 312 312 311 311 311 311 311 311 311 311 311 311 312 311 312 312 312 312 313 313 313 314 314 314 315 315 315 315 315 315 315 315 316 316 316 317 317 318 318 318 318 318 318 318 318 319 319 319 319 319 319 320 320 320 320 321 321 321 322 322 322 323 323 323 323 323 323 324 324 324 324 325 325 325 326 326 326 326 326 326 327 327 327 327 327 327 327 327 327 327 327 328 329 331 331 331 331 331 330 330 330 331 331 330 331 332 332 332 332 332 333 333 334 334 335 337 335 335 335 336 336 336 337 338 337 338 339 338 341 343 344 345 345 346 346 344 345 347 348 348 348 350 352 354 356 361 363 365 367 365 365 364 363 367 368 368 367 367 369 370 370 371 371 372 373 375 378 379 386 392 400 401 398 400 394 392 395 400 406 412 416 417 416 414 417 420 425 415 411 405 400 400 400 407 413 418 425 431 434 440 443 450 455 457 461 463 466 465 468 471 475 475 477 476 475 467 462 457 450 447 444 445 446 450 451 454 454 455 456 454 450 437 425 422 423 427 436 441 450 457 463 467 475 487 500 499 499 498 497 508 525 531 534 540 543 550 557 563 567 575 582 590 592 600 612 625 632 635 639 642 647 650 652 659 663 665 665 666 666 667 667 667 669 670 672 673 675 678 680 683 686 688 689 691 693 694 695 698 700 702 705 707 709 712 715 717 719 722 725 733 741 750 754 757 757 756 753 747 737 728 728 733 733 732 726 725 723 717 714 708 704 700 701 700 682 667 660 650 628 615 603 592 584 575 553 547 546 549 554 559 564 568 573 577 580 584 590 595 600 600 612 625 628 624 630 630 624 636 640 640 645 647 650 657 664 668 675 675 682 687 692 700 708 714 725 731 734 740 743 750 750 756 760 768 775 775 783 791 800 805 808 812 815 820 825 831 834 838 843 850 850 839 833 825 800 787 775 762 750 743 740 734 733 725 700 700 687 675 675 675 662 660 650 637 650 650 637 625 625 612 614 625 637 650 656 661 666 670 675 681 684 687 692 700 700 700 691 683 675 666 660 650 639 633 625 612 600 600 575 562 550 550 550 546 560 566 575 583 589 600 604 610 612 617 625 625 632 635 640 643 650 660 664 675 687 700 712 725 735 739 750 762
325 325 325 325 325 325 325 325 325 325 325 325 325 325 325 325 325 325 325 325 325 325 324 324 324 324 324 324 324 323 323 323 323 323 323 323 323 323 323 322 322 322 322 321 321 321 321 321 321 321 321 321 321 321 320 320 320 320 320 320 320 320 320 320 320 320 320 320 320 320 320 320 320 319 319 319 319 319 319 319 318 318 318 318 318 318 318 317 317 318 318 318 318 317 317 317 317 316 317 316 316 316 316 316 316 316 316 315 315 315 315 315 315 315 315 315 315 315 315 315 315 315 315 315 314 314 314 314 314 313 313 313 313 313 313 313 313 312 312 313 312 312 312 312 312 312 311 311 311 311 311 311 311 311 311 311 311 311 311 311 311 310 310 310 310 310 310 311 311 311 310 310 310 310 311 311 310 310 310 310 310 310 311 310 310 310 310 310 310 310 310 310 310 310 310 311 310 310 310 310 310 310 310 310 309 308 308 308 307 307 307 308 308 308 308 309 309 309 309 309 310 310 310 310 311 310 310 310 311 311 311 311 311 311 311 312 312 312 312 312 312 311 311 311 312 311 311 311 311 311 311 311 311 311 311 311 311 311 311 312 312 312 313 313 313 313 314 314 315 315 315 315 315 315 315 315 316 316 316 317 317 318 317 318 318 318 318 319 318 318 319 319 319 319 319 319 320 320 320 320 321 321 321 322 322 322 322 323 323 323 323 323 324 324 324 324 325 325 326 326 326 326 326 326 327 327 327 327 327 327 327 327 327 327 327 327 328 331 331 331 330 331 330 329 329 330 330 331 331 331 332 332 332 332 333 333 332 333 335 334 335 335 337 336 336 336 336 339 338 338 338 337 342 343 344 344 344 344 344 345 346 347 348 348 349 350 352 354 357 358 362 364 365 364 360 360 362 367 365 366 367 368 369 369 370 371 371 373 373 375 379 386 391 400 400 401 400 394 391 390 393 400 405 409 412 411 411 412 412 415 414 410 403 400 401 400 400 408 415 422 428 433 440 443 450 450 456 461 465 468 470 468 470 473 476 477 478 477 477 475 466 460 450 447 443 443 443 445 446 450 450 453 453 452 450 437 425 421 422 425 434 441 450 459 466 475 483 489 500 501 503 502 504 509 525 531 537 543 550 556 560 567 575 581 585 592 600 609 614 625 633 641 650 650 650 650 661 665 667 668 669 669 668 668 669 669 670 672 673 675 676 678 681 684 687 689 688 692 694 695 698 700 703 704 707 710 710 711 713 716 719 722 725 733 741 750 754 755 755 754 752 746 736 725 722 725 725 725 719 716 715 713 708 705 700 694 695 700 687 675 662 650 625 612 600 590 585 575 562 550 546 550 555 558 562 567 571 576 580 585 590 595 600 608 614 625 628 624 624 628 627 634 638 642 645 650 650 657 664 668 671 679 675 683 691 700 700 710 712 725 733 739 750 753 754 758 763 768 775 779 784 790 793 800 805 810 814 820 825 825 831 837 843 850 850 837 825 814 810 800 775 750 750 743 737 731 725 712 700 687 675 675 666 662 650 650 637 625 625 625 625 625 600 600 625 637 650 650 657 661 663 666 668 675 681 682 687 691 692 693 689 682 675 666 662 650 641 635 625 614 610 600 587 575 550 547 550 550 558 562 575 583 589 600 603 606 607 612 617 625 625 631 636 641 645 650 662 675 687 700 710 716 725 737 750 762
325 325 325 325 325 325 325 325 325 325 325 325 325 325 325 325 325 325 325 325 324 324 324 324 324 324 324 323 323 323 323 323 323 323 323 323 323 322 322 322 321 321 321 321 321 321 320 321 320 320 321 321 320 320 320 320 320 320 320 320 320 320 320 320 320 320 320 320 320 320 320 320 319 319 319 319 319 319 319 319 318 318 318 318 318 317 317 317 317 317 317 317 317 317 317 317 317 316 316 316 316 316 316 316 315 315 315 315 315 315 315 315 315 315 315 315 315 315 315 315 315 315 315 315 314 314 314 314 314 313 313 313 313 313 313 313 313 312 312 313 312 312 312 312 312 312 311 311 311 311 311 311 311 311 311 311 311 310 310 311 311 310 310 310 310 310 310 310 311 310 310 310 310 310 311 310 311 310 310 310 310 310 311 311 311 310 310 310 310 310 310 310 310 310 310 310 310 310 310 310 310 310 310 310 309 309 308 308 308 308 308 308 308 308 308 309 309 309 309 309 310 310 310 310 310 310 310 310 311 311 311 311 312 312 312 312 312 311 311 311 312 312 311 311 311 311 311 311 310 310 310 310 310 310 311 311 311 311 311 312 312 312 312 313 313 313 314 314 315 315 315 315 315 315 315 315 315 316 316 316 317 317 317 317 318 318 318 318 318 318 318 318 319 319 319 319 319 319 320 320 320 320 321 321 321 322 322 322 322 322 323 323 323 323 324 324 324 325 325 325 326 326 326 326 326 327 327 327 327 327 326 327 327 327 327 327 328 330 329 331 331 332 330 329 329 329 329 330 331 331 332 332 331 331 332 332 332 333 333 334 335 335 336 335 336 336 337 339 337 338 338 340 343 344 344 344 344 344 344 346 345 346 348 348 349 350 352 354 356 359 361 363 363 362 363 363 362 366 364 366 366 367 368 370 371 371 372 374 375 375 379 388 396 400 403 402 400 393 388 386 389 392 400 405 408 407 407 408 406 406 408 400 400 397 398 400 407 411 417 425 431 436 442 450 454 455 458 464 468 471 475 473 473 475 477 478 480 479 478 477 475 464 458 450 444 440 440 441 443 445 445 450 450 450 450 437 425 422 422 425 436 447 455 462 472 478 484 492 500 501 507 506 507 512 525 531 537 543 550 557 564 568 575 581 587 593 600 611 622 628 634 642 650 657 659 662 667 675 675 675 673 671 671 671 671 671 671 674 675 679 678 680 682 685 688 690 692 693 696 697 700 702 703 706 707 709 712 711 714 717 720 722 725 733 741 750 751 753 754 753 750 738 734 725 718 718 717 716 712 708 708 707 705 700 697 689 689 687 675 665 650 650 637 625 612 600 587 575 562 550 545 547 550 556 562 566 573 575 580 585 589 594 600 606 612 617 625 625 625 625 625 633 636 643 650 655 656 660 667 675 675 675 687 689 692 694 697 700 700 712 725 737 750 750 754 757 762 767 770 775 781 787 793 800 804 809 814 818 820 825 831 837 843 850 850 837 825 812 800 787 775 762 750 743 737 731 725 712 700 689 685 675 666 660 650 648 637 625 625 625 612 600 600 600 625 637 650 650 654 657 660 661 665 668 675 675 682 683 685 687 686 683 679 675 675 650 650 637 625 625 612 600 587 575 562 550 550 546 550 550 562 575 587 600 600 600 600 607 614 618 625 630 635 640 645 650 662 675 687 700 710 716 725 737 750 762
325 325 325 325 325 325 325 325 325 325 325 325 325 325 325 325 325 325 324 324 324 324 324 324 324 324 323 324 323 323 323 323 323 323 323 322 322 322 322 322 321 321 321 321 321 320 321 320 320 320 320 320 320 320 320 320 320 320 320 320 320 320 320 320 320 320 320 320 319 319 319 319 319 319 319 319 319 319 319 318 318 318 318 318 317 317 317 317 317 317 317 317 317 317 317 317 316 316 316 316 316 316 316 316 315 315 315 316 315 315 315 315 315 315 315 315 315 315 315 315 315 315 314 315 314 314 314 314 314 313 313 313 313 313 313 313 313 312 312 312 312 312 312 312 311 311 311 311 311 311 311 311 311 311 311 311 311 311 310 310 310 310 310 310 310 310 310 310 311 310 310 311 310 310 311 310 310 310 310 310 310 310 310 310 310 310 310 310 310 310 310 310 310 310 310 310 310 310 310 310 310 310 310 310 310 309 308 308 308 308 308 308 308 308 308 308 309 309 309 309 309 310 310 310 310 310 310 311 311 311 311 311 312 312 312 311 312 311 311 311 311 311 311 311 311 311 310 310 310 310 310 310 310 310 310 310 311 311 311 311 312 312 312 313 313 313 314 314 315 315 315 315 315 315 315 315 315 315 315 316 317 317 317 317 318 318 318 318 318 319 318 319 318 319 319 319 319 319 319 320 320 320 320 321 321 321 322 322 322 322 322 323 323 323 323 324 324 324 325 325 325 326 326 326 326 327 327 327 327 327 326 326 326 327 327 327 327 328 328 329 330 330 332 330 330 330 330 329 330 331 331 331 330 331 332 332 332 333 333 333 334 335 335 335 335 336 336 337 337 338 339 340 342 344 344 344 344 345 345 346 345 346 348 348 348 350 352 353 355 356 355 356 360 359 361 363 363 366 365 365 367 367 369 370 371 372 372 375 381 379 381 390 400 403 405 403 400 392 386 381 384 389 400 403 404 402 402 403 402 400 400 396 396 396 399 400 408 415 425 428 433 439 443 450 455 460 463 467 473 475 476 475 476 477 478 480 481 480 479 477 475 466 458 450 443 438 436 436 438 441 443 445 450 442 440 435 425 421 421 425 437 450 458 465 475 481 486 492 500 501 503 509 509 514 525 531 537 543 550 558 566 575 581 584 590 593 600 611 625 632 636 642 650 660 666 672 675 676 678 678 676 675 673 673 672 672 673 673 675 680 682 683 684 687 690 692 694 696 695 700 702 703 705 707 707 708 713 714 715 718 717 721 725 733 741 750 752 752 755 753 750 737 725 718 715 712 710 708 707 700 700 700 700 691 687 682 682 683 675 650 650 625 625 612 600 600 588 580 575 550 547 547 550 556 558 564 575 575 580 583 588 593 600 600 607 614 618 620 620 625 625 633 638 650 655 658 661 663 668 675 685 687 700 700 700 700 700 700 708 714 725 735 741 750 750 756 761 766 770 775 782 789 793 800 804 808 812 816 821 825 831 837 843 850 850 837 825 812 800 787 775 762 750 743 740 735 733 725 712 700 687 675 675 664 662 650 650 650 637 637 625 612 600 600 625 635 637 637 650 643 655 656 659 664 666 675 675 675 681 681 681 682 679 677 675 662 650 639 635 632 625 612 600 587 575 562 550 547 546 550 550 575 585 587 589 592 600 606 612 618 625 631 636 641 645 650 662 675 687 700 712 725 733 739 750 760
325 325 325 325 325 325 325 325 325 325 325 325 325 325 325 325 324 324 324 324 324 324 324 323 324 324 323 323 323 323 323 323 323 323 322 322 322 322 321 321 321 321 321 321 321 320 320 320 320 320 320 320 320 320 320 320 320 320 320 320 320 320 320 320 320 320 319 319 319 319 319 319 319 319 319 319 319 318 318 318 318 318 318 317 317 317 317 317 317 317 317 317 317 317 317 316 316 316 316 316 316 315 316 316 315 315 315 315 315 315 315 315 315 315 315 315 315 315 315 315 315 314 314 315 314 314 314 314 314 314 313 313 313 313 313 313 313 313 312 313 312 312 312 312 312 311 311 311 311 311 311 311 311 311 311 311 310 310 310 310 310 310 310 310 310 310 310 310 311 310 310 310 311 310 310 310 310 310 310 310 310 310 310 310 310 310 310 310 310 310 310 310 310 310 310 310 310 310 310 310 310 310 310 310 310 309 309 308 308 308 308 308 309 309 308 308 309 309 309 309 309 309 310 310 310 310 310 310 311 311 311 311 311 311 311 311 311 311 311 311 311 311 311 311 310 310 310 310 310 310 310 310 310 310 310 310 310 311 311 311 312 312 312 313 313 313 314 314 315 315 315 315 315 315 315 315 315 315 315 316 317 317 317 317 318 318 318 318 318 318 318 318 318 319 319 319 319 319 319 319 320 320 320 320 321 321 321 321 322 322 322 322 322 323 323 323 324 324 324 325 325 326 326 326 326 326 327 326 326 327 326 326 327 326 326 326 327 327 328 329 329 329 330 330 329 330 329 329 330 330 331 331 331 331 332 332 332 332 333 334 334 334 335 335 335 336 336 337 337 338 338 340 342 343 344 344 345 345 345 345 346 347 347 347 349 350 352 354 353 354 354 355 354 359 360 362 362 364 364 365 366 367 369 370 372 374 375 375 382 386 389 395 402 405 407 404 401 394 385 375 375 395 395 399 401 400 394 400 400 392 392 392 392 395 400 409 413 417 425 431 436 441 447 453 457 462 467 469 475 476 476 477 477 478 480 481 483 481 479 477 475 466 458 450 445 436 433 433 435 437 440 442 443 439 433 427 425 421 421 425 437 450 458 466 475 480 486 490 493 499 503 507 513 515 525 531 537 543 550 558 565 575 581 587 593 600 603 610 621 625 636 647 656 663 675 675 678 679 681 681 679 678 676 676 675 675 674 675 675 681 684 686 686 689 691 694 696 699 700 701 703 705 706 707 708 709 713 713 716 717 718 721 725 732 739 743 750 752 753 752 750 737 725 717 710 706 706 700 700 689 687 687 687 685 683 675 677 676 675 658 646 625 612 600 592 589 585 580 575 550 546 546 550 550 550 560 566 568 575 581 587 593 600 600 606 611 615 616 620 625 632 637 642 650 656 661 666 668 669 675 687 700 705 706 707 710 712 712 712 717 725 737 741 750 750 757 764 768 775 782 787 792 800 803 806 809 813 816 821 825 831 837 843 850 850 837 825 825 800 787 775 762 750 750 743 741 737 725 725 712 700 687 687 675 675 675 662 660 650 650 625 625 600 600 612 625 625 625 625 650 650 650 656 657 660 664 666 666 675 675 675 679 678 674 675 664 658 650 637 625 625 612 600 587 575 564 557 550 546 546 550 562 575 575 583 591 600 606 612 618 625 631 637 643 650 662 675 682 689 700 712 725 735 741 750 757
325 325 325 325 325 325 325 325 325 325 325 325 325 324 325 324 324 324 324 324 324 323 323 324 324 324 323 323 323 323 323 323 323 323 322 322 321 322 321 321 321 321 321 321 320 320 320 320 320 320 320 320 320 320 320 320 320 320 320 320 320 320 320 319 319 319 319 319 319 319 319 319 319 319 319 319 318 318 318 318 318 318 318 317 317 317 317 317 317 317 317 317 317 317 317 317 316 316 316 316 316 315 316 316 315 315 315 315 315 315 315 315 315 315 315 315 315 315 315 315 315 314 315 314 314 314 314 313 313 314 313 313 313 313 313 313 313 313 313 313 312 312 312 312 311 311 311 311 311 311 311 311 311 311 311 311 310 310 310 310 310 310 310 310 310 310 310 310 310 310 310 310 310 311 310 310 310 310 310 310 310 310 310 310 310 310 310 310 310 310 310 310 310 310 310 310 310 310 310 310 310 310 310 310 310 309 309 309 308 308 309 308 308 309 309 308 308 309 309 309 309 309 310 310 310 310 310 310 311 311 311 311 311 311 311 311 311 311 311 311 311 310 310 310 310 310 310 310 309 310 309 310 310 310 310 310 310 311 311 311 311 312 312 313 313 313 314 314 315 315 315 315 315 315 315 315 315 315 315 316 317 316 317 317 317 317 318 318 318 318 318 318 319 318 318 318 319 319 318 319 319 320 320 320 320 321 321 321 321 321 322 322 322 322 323 323 323 324 324 325 325 325 326 326 326 326 326 327 326 326 326 326 326 326 326 326 327 327 327 327 327 327 328 328 328 329 328 328 328 328 329 330 331 331 331 332 332 331 332 334 334 335 335 335 335 336 336 335 337 337 337 339 342 342 344 344 345 344 344 345 345 346 347 347 348 349 351 353 354 355 353 354 354 356 358 362 362 363 364 364 365 367 370 371 374 377 381 382 387 391 396 402 406 409 409 406 401 394 385 375 375 382 395 400 394 390 387 389 389 387 386 390 393 398 404 411 421 421 428 432 439 443 450 456 460 465 469 475 475 476 476 477 478 479 480 482 484 483 479 476 470 465 458 452 443 435 428 429 431 434 437 438 438 435 431 425 420 417 421 424 432 450 458 466 475 479 482 486 490 493 498 503 510 517 525 531 537 543 550 555 563 575 581 586 592 600 607 610 615 625 637 650 661 671 675 679 681 683 685 686 683 682 684 684 683 683 680 675 683 685 687 688 689 690 693 696 699 700 702 702 703 705 708 709 709 710 711 715 717 718 721 722 725 731 737 743 750 751 752 750 743 735 725 716 709 700 700 692 689 685 675 675 675 675 675 667 665 665 665 660 650 637 625 600 589 583 575 575 562 550 546 546 546 550 550 559 566 575 575 582 589 593 600 604 607 611 616 619 621 625 635 641 650 655 658 663 668 675 675 685 689 700 706 711 714 716 725 725 717 725 737 750 750 756 757 762 767 775 781 785 792 800 800 804 808 811 815 818 821 825 831 837 843 850 852 850 837 825 812 800 775 775 762 760 750 750 750 737 733 725 712 700 700 687 683 681 675 662 657 644 650 625 600 595 600 600 600 612 614 625 637 637 650 650 650 658 658 660 662 662 664 675 675 675 668 664 656 650 637 625 612 610 600 587 575 562 550 547 546 550 556 562 568 575 583 591 600 606 612 617 625 631 634 640 643 650 662 675 687 700 712 725 737 750 750 750
